nan,nan,nan,nan,nan,nan,nan,nan,nan,nan,nan,nan,nan,nan,nan,nan,nan,2.492125,2.492125,2.5017502,2.5017502,2.5017502,2.5410001,2.551,2.5712502,2.561125,2.5410001,2.551,2.551,2.5410001,2.5410001,2.551,2.551,2.5410001,2.5410001,2.561125,2.561125,2.561125,2.551,2.561125,2.561125,2.5310001,2.5310001,2.52125,2.5310001,2.52125,2.5410001,2.5410001,2.52125,2.5113752,2.5017502,2.5017502,2.5017502,2.492125,2.4636252,2.43575,2.3907502,nan,nan,nan,nan,nan,nan,nan,nan,0.20500001,0.205125,0.205125,0.205125,0.20537502,0.20562501,0.20575,0.20587501,0.20587501,0.206125,0.206125,0.20625001,0.206125,0.206125,0.20587501,0.20587501,0.20600002,0.206125,0.206125,0.20625001,0.206375,0.20662501,0.20675,0.20687501,0.20687501,0.20700002,0.20712501,0.207375,0.20762502,0.20787501,0.208375,0.20850001,0.208625,0.20875001,0.20887502,0.20912501,0.209625,0.21000001,0.21025,0.21050002,0.21075001,0.21100001,0.21112502,0.21137501,0.21162501,0.21200001,0.21237502,0.21262501,0.21262501,0.21262501,0.21262501,0.21262501,0.21262501,0.21262501,0.21262501,0.21262501,0.21262501,0.2125,0.21237502,0.21237502,0.21225001,0.21237502,0.2125,0.20212501,0.20237501,0.20237501,0.20225,0.20187502,0.20137501,0.20087501,0.200375,0.20012501,0.19975,0.19925001,0.19900002,0.19875,0.1985,0.19825001,0.19787501,0.19775,0.19762501,0.19762501,0.1975,0.19725001,0.197125,0.19700001,0.196875,0.19662501,0.1965,0.19637501,0.19637501,0.19637501,0.19637501,0.19625,0.19612502,0.19600001,0.195875,0.19575001,0.19550002,0.19537501,0.19525,0.19525,0.19525,0.19525,0.19525,0.19525,0.19525,0.19537501,0.19537501,0.19550002,0.19550002,0.19550002,0.19550002,0.19537501,0.19537501,0.19525,0.19537501,0.19525,0.19525,0.19537501,0.19537501,0.19537501,0.19537501,0.19537501,0.19537501,0.19537501,0.19550002,0.19550002,0.19537501,0.19525,0.19525,0.19525,0.19525,0.19525,0.19525,0.19525,0.19525,0.19525,0.19537501,0.195625,0.19575001,0.195625,0.19575001,0.19575001,0.195875,0.19600001,0.19600001,0.19600001,0.19612502,0.19612502,0.19625,0.19637501,0.19637501,0.19637501,0.1965,0.1965,0.19662501,0.19662501,0.19675002,0.19675002,0.19700001,0.197125,0.197125,0.19725001,0.1975,0.19775,0.19787501,0.19787501,0.19800001,0.198125,0.19825001,0.19837502,0.19837502,0.19837502,0.19837502,0.19825001,0.19825001,0.19825001,0.19825001,0.19837502,0.19837502,0.19837502,0.19837502,0.19837502,0.19837502,0.1985,0.1985,0.1985,0.19862501,0.19875,0.19887501,0.19900002,0.199125,0.199375,0.19962502,0.19975,0.19975,0.19975,0.19975,0.19987501,0.19987501,0.2,0.2,0.2,0.2,0.19987501,0.19987501,0.2,0.2,0.19987501,0.19975,0.19962502,0.19950001,0.19950001,0.19962502,0.19962502,0.19962502,0.19962502,0.19975,0.19975,0.19975,0.19975,0.19975,0.19975,0.19962502,0.19962502,0.19962502,0.19962502,0.19962502,0.19975,0.19975,0.19975,0.19962502,0.19975,0.19975,0.19975,0.19962502,0.19962502,0.19950001,0.19950001,0.19950001,0.19950001,0.19950001,0.19950001,0.199375,0.19950001,0.19950001,0.19950001,0.19950001,0.199375,0.19925001,0.19925001,0.19925001,0.19925001,0.19925001,0.199125,0.199125,0.199125,0.199125,0.199125,0.19900002,0.19887501,0.19875,0.19862501,0.1985,0.19837502,0.19837502,0.19825001,0.19825001,0.19825001,0.198125,0.198125,0.198125,0.198125,0.198125,0.19800001,0.19800001,0.19787501,0.19787501,0.19787501,0.19775,0.19762501,0.19762501,0.19762501,0.19737501,0.19737501,0.19737501,0.19737501,0.19737501,0.19737501,0.19737501
nan,nan,nan,nan,nan,nan,nan,nan,nan,nan,nan,nan,nan,nan,nan,nan,nan,2.492125,2.5017502,2.5017502,2.5017502,2.5113752,2.551,2.5712502,2.5712502,2.5712502,2.5712502,2.591875,2.60225,2.561125,2.5712502,2.5712502,2.561125,2.561125,2.561125,2.561125,2.551,2.551,2.5410001,2.551,2.5410001,2.52125,2.52125,2.5017502,2.5017502,2.5113752,2.52125,2.52125,2.5113752,2.5017502,2.492125,2.492125,2.492125,2.4825,2.45425,2.4086251,2.37325,nan,nan,nan,nan,nan,nan,nan,nan,nan,0.20500001,0.20500001,0.205125,0.20575,0.206125,0.20625001,0.206375,0.20625001,0.20625001,0.206375,0.206375,0.20625001,0.20625001,0.206125,0.20600002,0.20600002,0.206125,0.20625001,0.206375,0.20650001,0.20662501,0.20675,0.20687501,0.20687501,0.20687501,0.20700002,0.20725001,0.20750001,0.20762502,0.20787501,0.20825002,0.208375,0.20850001,0.208625,0.209,0.20950001,0.20950001,0.20975001,0.21037501,0.21075001,0.210875,0.21112502,0.21125,0.2115,0.21162501,0.211875,0.212125,0.21237502,0.21237502,0.21237502,0.21237502,0.21237502,0.21237502,0.21237502,0.21225001,0.21225001,0.21200001,0.211875,0.211875,0.211875,0.211875,0.21162501,0.20250002,0.20250002,0.20237501,0.20237501,0.202,0.20150001,0.201,0.20050001,0.20025001,0.19900002,0.199125,0.19887501,0.19862501,0.19837502,0.198125,0.19787501,0.19775,0.19762501,0.1975,0.19737501,0.19725001,0.197125,0.19700001,0.19675002,0.1965,0.19637501,0.19637501,0.19637501,0.19625,0.19625,0.19612502,0.19600001,0.195875,0.19575001,0.195625,0.19537501,0.19525,0.19512501,0.19512501,0.19512501,0.19512501,0.19512501,0.19512501,0.19525,0.19525,0.19525,0.19525,0.19525,0.19525,0.19512501,0.19512501,0.19512501,0.19512501,0.19512501,0.19512501,0.19512501,0.19525,0.19525,0.19525,0.19525,0.19512501,0.19512501,0.19512501,0.19512501,0.19512501,0.19500001,0.194875,0.19500001,0.19500001,0.19500001,0.19500001,0.19512501,0.19500001,0.19500001,0.19500001,0.19525,0.19537501,0.19537501,0.19537501,0.19550002,0.19550002,0.19550002,0.195625,0.19575001,0.19575001,0.195875,0.19600001,0.19612502,0.19612502,0.19625,0.19637501,0.19637501,0.19637501,0.19637501,0.1965,0.1965,0.19662501,0.19675002,0.19675002,0.196875,0.19700001,0.19725001,0.19737501,0.19762501,0.19775,0.19787501,0.19800001,0.198125,0.198125,0.19825001,0.19825001,0.19825001,0.19825001,0.198125,0.198125,0.198125,0.19825001,0.19825001,0.19825001,0.19825001,0.19825001,0.19837502,0.19837502,0.1985,0.19862501,0.19862501,0.19887501,0.19900002,0.199125,0.19925001,0.199375,0.19962502,0.19975,0.19975,0.19962502,0.19975,0.19987501,0.19987501,0.2,0.20012501,0.2,0.2,0.2,0.19987501,0.2,0.19987501,0.19975,0.19962502,0.19950001,0.19950001,0.19950001,0.19950001,0.19962502,0.19950001,0.19950001,0.19962502,0.19962502,0.19962502,0.19962502,0.19962502,0.19962502,0.19950001,0.19950001,0.199375,0.199375,0.19950001,0.19962502,0.19962502,0.19962502,0.19950001,0.19962502,0.19962502,0.19962502,0.19950001,0.19950001,0.199375,0.19925001,0.19925001,0.19925001,0.199375,0.199375,0.19925001,0.19925001,0.199375,0.199375,0.199375,0.19925001,0.199125,0.199125,0.19900002,0.19900002,0.19900002,0.19887501,0.19887501,0.19887501,0.19887501,0.19887501,0.19875,0.19862501,0.19862501,0.1985,0.19837502,0.19825001,0.198125,0.198125,0.198125,0.19800001,0.19800001,0.19800001,0.19800001,0.19800001,0.19800001,0.19787501,0.19787501,0.19787501,0.19787501,0.19787501,0.19775,0.19762501,0.1975,0.19737501,0.197125,0.19700001,0.197125,0.197125,0.19700001,0.19700001,0.19700001
nan,nan,nan,nan,nan,nan,nan,nan,nan,nan,nan,nan,nan,nan,nan,nan,nan,2.5113752,2.5113752,2.5113752,2.5310001,2.5410001,2.60225,2.5815,2.591875,2.60225,2.61275,2.6341252,2.61275,2.561125,2.5712502,2.5815,2.551,2.5410001,2.551,2.551,2.5310001,2.5310001,2.5310001,2.5310001,2.52125,2.5113752,2.5017502,2.492125,2.492125,2.492125,2.5017502,2.5113752,2.5017502,2.492125,2.4825,2.4825,2.4825,2.4825,2.45425,2.4086251,2.3820002,2.37325,2.37325,nan,nan,nan,nan,nan,nan,nan,0.206125,0.206375,0.206375,0.20650001,0.20650001,0.20650001,0.20650001,0.20650001,0.206375,0.20650001,0.206375,0.20625001,0.206125,0.20600002,0.20600002,0.206125,0.206125,0.206125,0.206375,0.20650001,0.20662501,0.20675,0.20687501,0.20687501,0.20687501,0.20700002,0.20725001,0.207375,0.20762502,0.20775001,0.208,0.20812501,0.20825002,0.208375,0.208625,0.20887502,0.20925,0.20925,0.20925,0.21037501,0.21075001,0.21100001,0.21112502,0.21137501,0.2115,0.21162501,0.211875,0.21200001,0.212125,0.212125,0.212125,0.212125,0.212125,0.211875,0.211875,0.211875,0.21175002,0.21162501,0.21162501,0.21162501,0.2115,0.2115,0.202625,0.20250002,0.20250002,0.20237501,0.20212501,0.201625,0.20112501,0.200625,0.20025001,0.19900002,0.19887501,0.19875,0.1985,0.19837502,0.198125,0.19787501,0.19775,0.19762501,0.1975,0.19725001,0.197125,0.19700001,0.196875,0.19675002,0.1965,0.19625,0.19625,0.19625,0.19612502,0.19600001,0.195875,0.195625,0.19550002,0.19537501,0.19525,0.19512501,0.19500001,0.19500001,0.19500001,0.19512501,0.19525,0.19512501,0.19512501,0.19525,0.19525,0.19525,0.19525,0.19512501,0.19500001,0.194875,0.194875,0.194875,0.194875,0.194875,0.194875,0.19500001,0.19500001,0.19512501,0.19512501,0.19512501,0.19500001,0.194875,0.194875,0.194875,0.19500001,0.194875,0.19475001,0.19475001,0.194875,0.194875,0.194875,0.194875,0.194875,0.194875,0.194875,0.19500001,0.19512501,0.19512501,0.19525,0.19525,0.19525,0.19525,0.19525,0.19537501,0.19550002,0.195625,0.19575001,0.195875,0.19600001,0.19612502,0.19625,0.19625,0.19625,0.19625,0.19637501,0.19637501,0.1965,0.1965,0.19662501,0.19662501,0.19675002,0.19700001,0.197125,0.19737501,0.19762501,0.19775,0.19787501,0.19800001,0.198125,0.19825001,0.19825001,0.19825001,0.19825001,0.198125,0.198125,0.198125,0.19825001,0.19825001,0.19825001,0.19825001,0.19825001,0.19825001,0.1985,0.19862501,0.19862501,0.19875,0.19887501,0.199125,0.19925001,0.199375,0.19950001,0.19962502,0.19975,0.19975,0.19962502,0.19975,0.19975,0.19987501,0.2,0.20012501,0.2,0.2,0.2,0.2,0.2,0.19987501,0.19975,0.19962502,0.19950001,0.19950001,0.19950001,0.19950001,0.19950001,0.19950001,0.19950001,0.19962502,0.19962502,0.19950001,0.19950001,0.19950001,0.199375,0.19925001,0.19925001,0.19925001,0.19925001,0.19925001,0.199375,0.199375,0.19950001,0.199375,0.199375,0.199375,0.199375,0.199375,0.199375,0.19925001,0.199125,0.199125,0.199125,0.19925001,0.19925001,0.199125,0.199125,0.19925001,0.19925001,0.19925001,0.199125,0.19900002,0.19900002,0.19887501,0.19875,0.19875,0.19875,0.19862501,0.19862501,0.19862501,0.19862501,0.1985,0.19837502,0.19837502,0.19825001,0.198125,0.198125,0.19800001,0.19800001,0.19787501,0.19787501,0.19787501,0.19787501,0.19787501,0.19787501,0.19787501,0.19787501,0.19775,0.19775,0.19775,0.19775,0.19762501,0.1975,0.19737501,0.19737501,0.19700001,0.196875,0.196875,0.196875,0.196875,0.19675002,0.19675002
nan,nan,nan,nan,nan,nan,nan,nan,nan,nan,nan,nan,nan,nan,nan,nan,nan,2.5017502,2.5017502,2.5017502,2.551,2.561125,2.644875,2.61275,2.61275,2.6341252,2.644875,2.6341252,2.61275,2.591875,2.5815,2.5815,2.5410001,2.5410001,2.5410001,2.5310001,2.5310001,2.52125,2.52125,2.52125,2.52125,2.5017502,2.5017502,2.492125,2.492125,2.492125,2.5017502,2.5017502,2.5017502,2.492125,2.4825,2.5017502,2.5017502,2.492125,2.4825,2.426625,2.4176252,2.4086251,2.3820002,2.3820002,nan,nan,nan,nan,nan,nan,0.20712501,0.20700002,0.20687501,0.20687501,0.20675,0.20675,0.20675,0.20662501,0.20662501,0.20662501,0.20650001,0.206375,0.206125,0.206125,0.206125,0.206125,0.206125,0.20625001,0.206375,0.20650001,0.20662501,0.20675,0.20687501,0.20700002,0.20700002,0.20712501,0.20725001,0.207375,0.20750001,0.20775001,0.20787501,0.208,0.20825002,0.20825002,0.20850001,0.20875001,0.20887502,0.20925,0.20950001,0.21012501,0.21062501,0.210875,0.21112502,0.21125,0.21137501,0.21162501,0.21175002,0.21175002,0.211875,0.211875,0.211875,0.21175002,0.21175002,0.21162501,0.21162501,0.2115,0.21162501,0.2115,0.2115,0.21162501,0.2115,0.2115,0.202625,0.202625,0.20250002,0.20250002,0.20225,0.20175001,0.20050001,0.20050001,0.20012501,0.19950001,0.19900002,0.19875,0.1985,0.19837502,0.19825001,0.19787501,0.19775,0.19762501,0.19737501,0.197125,0.19700001,0.196875,0.19675002,0.19662501,0.19637501,0.19625,0.19612502,0.19612502,0.195875,0.19575001,0.195625,0.19537501,0.19525,0.19525,0.19512501,0.194875,0.194875,0.194875,0.19500001,0.19500001,0.19512501,0.19512501,0.19512501,0.19512501,0.19512501,0.19512501,0.19500001,0.194875,0.19475001,0.19475001,0.194625,0.194625,0.194625,0.19450001,0.194625,0.19475001,0.194875,0.194875,0.194875,0.194875,0.194875,0.19475001,0.19475001,0.19475001,0.19475001,0.19475001,0.194625,0.194625,0.19475001,0.19475001,0.19475001,0.19475001,0.19475001,0.19475001,0.19475001,0.194875,0.19500001,0.19500001,0.19500001,0.19500001,0.19500001,0.19500001,0.19512501,0.19525,0.19525,0.19537501,0.19550002,0.195625,0.19575001,0.195875,0.19600001,0.19600001,0.19600001,0.19600001,0.19612502,0.19625,0.19637501,0.19637501,0.19637501,0.1965,0.19675002,0.196875,0.19700001,0.19725001,0.1975,0.19775,0.19787501,0.19800001,0.198125,0.19825001,0.19825001,0.19825001,0.198125,0.198125,0.198125,0.198125,0.19825001,0.19825001,0.19825001,0.19825001,0.19825001,0.19825001,0.19837502,0.1985,0.19862501,0.19862501,0.19887501,0.19900002,0.199125,0.199375,0.19950001,0.19950001,0.19962502,0.19975,0.19962502,0.19975,0.19975,0.19987501,0.19987501,0.2,0.19987501,0.19987501,0.2,0.2,0.2,0.19987501,0.19975,0.19962502,0.19950001,0.19950001,0.19950001,0.19950001,0.19950001,0.19962502,0.19962502,0.19962502,0.19962502,0.19950001,0.19950001,0.199375,0.19925001,0.199125,0.199125,0.199125,0.19900002,0.19900002,0.199125,0.19925001,0.19925001,0.199375,0.19925001,0.19925001,0.199375,0.19925001,0.19925001,0.19925001,0.199125,0.199125,0.19900002,0.199125,0.19900002,0.19900002,0.19900002,0.19900002,0.199125,0.199125,0.19900002,0.19887501,0.19887501,0.19875,0.19862501,0.19862501,0.19862501,0.1985,0.1985,0.1985,0.1985,0.19837502,0.19825001,0.198125,0.198125,0.19800001,0.19800001,0.19787501,0.19787501,0.19775,0.19775,0.19775,0.19775,0.19762501,0.19762501,0.19762501,0.19775,0.19762501,0.1975,0.19762501,0.19762501,0.19762501,0.19737501,0.19725001,0.19725001,0.196875,0.19675002,0.19675002,0.19662501,0.19662501,0.1965,0.1965
nan,nan,nan,nan,nan,nan,nan,nan,nan,nan,nan,nan,nan,nan,nan,nan,nan,2.4825,2.473,2.4825,2.5310001,2.5410001,2.6233752,2.60225,2.60225,2.644875,2.65575,2.644875,2.61275,2.60225,2.60225,2.5815,2.551,2.561125,2.551,2.5410001,2.5410001,2.5410001,2.5410001,2.5310001,2.5310001,2.5113752,2.5017502,2.5113752,2.5113752,2.5113752,2.5113752,2.5017502,2.5113752,2.5113752,2.52125,2.52125,2.52125,2.5113752,2.52125,2.473,2.4636252,2.45425,2.426625,2.3820002,2.45425,2.4636252,nan,nan,nan,0.20712501,0.20700002,0.20687501,0.20700002,0.20700002,0.20687501,0.20675,0.20675,0.20662501,0.20662501,0.20662501,0.20662501,0.206375,0.20625001,0.20625001,0.20625001,0.206125,0.20625001,0.206375,0.206375,0.206375,0.20650001,0.20675,0.20675,0.20687501,0.20687501,0.20687501,0.20700002,0.20712501,0.207375,0.20762502,0.20775001,0.20787501,0.208,0.208,0.208375,0.20875001,0.20875001,0.209,0.20950001,0.21000001,0.21050002,0.21075001,0.210875,0.21100001,0.21112502,0.21137501,0.2115,0.21162501,0.21162501,0.21162501,0.21162501,0.2115,0.2115,0.2115,0.21137501,0.21137501,0.21137501,0.21125,0.21125,0.21137501,0.21162501,0.21162501,0.20300001,0.202625,0.202625,0.20250002,0.20250002,0.20212501,0.200375,0.20025001,0.2,0.19950001,0.19900002,0.19875,0.1985,0.19837502,0.19825001,0.19787501,0.19762501,0.19737501,0.19725001,0.196875,0.19675002,0.19675002,0.19662501,0.1965,0.19637501,0.19612502,0.19600001,0.19600001,0.19575001,0.19550002,0.19537501,0.19525,0.19525,0.19512501,0.19500001,0.194875,0.194875,0.19475001,0.194875,0.194875,0.19500001,0.19500001,0.19500001,0.194875,0.19500001,0.194875,0.19475001,0.194625,0.19450001,0.19437501,0.19437501,0.19425,0.19425,0.19425,0.19437501,0.19450001,0.19475001,0.194875,0.194875,0.19475001,0.19475001,0.194625,0.194625,0.194625,0.19450001,0.19450001,0.19437501,0.19437501,0.19437501,0.19437501,0.19437501,0.19450001,0.19450001,0.19450001,0.194625,0.194625,0.19475001,0.19475001,0.19475001,0.19475001,0.194875,0.194875,0.19500001,0.19500001,0.19500001,0.19512501,0.19525,0.19525,0.19537501,0.19550002,0.19575001,0.19575001,0.19575001,0.19575001,0.19600001,0.19612502,0.19612502,0.19625,0.19625,0.19637501,0.19662501,0.19675002,0.196875,0.197125,0.19737501,0.19762501,0.19775,0.19787501,0.19800001,0.198125,0.198125,0.198125,0.198125,0.198125,0.198125,0.198125,0.19825001,0.19825001,0.198125,0.19825001,0.19825001,0.19825001,0.19837502,0.1985,0.1985,0.1985,0.19875,0.19900002,0.199125,0.19925001,0.19950001,0.19950001,0.19962502,0.19975,0.19962502,0.19975,0.19987501,0.19987501,0.19987501,0.19987501,0.19987501,0.19987501,0.19987501,0.19987501,0.19987501,0.19975,0.19962502,0.19962502,0.19950001,0.199375,0.19950001,0.19950001,0.19950001,0.19950001,0.19962502,0.19962502,0.19950001,0.19950001,0.199375,0.199375,0.19925001,0.199125,0.19900002,0.19900002,0.19887501,0.19887501,0.19900002,0.19925001,0.19925001,0.19925001,0.199375,0.199375,0.199375,0.19925001,0.199125,0.19900002,0.19887501,0.19887501,0.19887501,0.19887501,0.19887501,0.19875,0.19887501,0.19900002,0.19900002,0.19900002,0.19887501,0.19887501,0.19875,0.19862501,0.19862501,0.1985,0.1985,0.19837502,0.19837502,0.19837502,0.19837502,0.19825001,0.198125,0.198125,0.19800001,0.19787501,0.19787501,0.19775,0.19762501,0.19762501,0.19762501,0.19762501,0.1975,0.1975,0.1975,0.1975,0.19762501,0.1975,0.1975,0.19762501,0.1975,0.1975,0.19737501,0.19725001,0.19700001,0.19675002,0.19662501,0.1965,0.1965,0.19637501,0.19637501,0.19625
nan,nan,nan,nan,nan,nan,nan,nan,nan,nan,nan,nan,nan,nan,nan,nan,2.4636252,2.4636252,2.4636252,2.473,2.5113752,2.52125,2.60225,2.5815,2.5815,2.61275,2.6341252,2.61275,2.60225,2.591875,2.591875,2.5815,2.561125,2.551,2.551,2.551,2.551,2.551,2.551,2.551,2.551,2.5310001,2.5310001,2.5310001,2.5310001,2.52125,2.52125,2.52125,2.5310001,2.5310001,2.5410001,2.5410001,2.5410001,2.5410001,2.551,2.5113752,2.5017502,2.4825,2.45425,2.43575,2.4636252,2.4636252,2.4176252,nan,nan,0.20675,0.20675,0.20687501,0.20687501,0.20687501,0.20687501,0.20675,0.20675,0.20662501,0.20662501,0.20662501,0.20662501,0.20650001,0.206375,0.206375,0.20625001,0.206375,0.20625001,0.20625001,0.206375,0.206375,0.20625001,0.20650001,0.20650001,0.20662501,0.20675,0.20675,0.20675,0.20687501,0.20725001,0.20750001,0.20775001,0.208,0.20812501,0.20825002,0.208375,0.20875001,0.20887502,0.209,0.20937501,0.21000001,0.21025,0.21037501,0.21050002,0.21062501,0.21075001,0.21100001,0.21125,0.21137501,0.21137501,0.21137501,0.21137501,0.21125,0.21125,0.21112502,0.21112502,0.21112502,0.21112502,0.21100001,0.210875,0.21100001,0.21075001,0.20412502,0.20400001,0.2035,0.20300001,0.20275001,0.20112501,0.20112501,0.2,0.19900002,0.19900002,0.19925001,0.19887501,0.19862501,0.1985,0.19837502,0.19825001,0.19787501,0.19762501,0.19725001,0.19700001,0.19675002,0.19662501,0.19662501,0.1965,0.19637501,0.19625,0.19600001,0.195875,0.19575001,0.195625,0.19537501,0.19525,0.19512501,0.19500001,0.194875,0.194875,0.19475001,0.194625,0.194625,0.19475001,0.194875,0.194875,0.194875,0.194875,0.194875,0.194875,0.19475001,0.194625,0.19437501,0.19425,0.19425,0.19412501,0.19412501,0.19412501,0.19425,0.19425,0.19425,0.19437501,0.19450001,0.19437501,0.19437501,0.19437501,0.19437501,0.19425,0.19425,0.19425,0.19425,0.19425,0.19412501,0.194,0.194,0.194,0.19412501,0.19425,0.19425,0.19425,0.19450001,0.19450001,0.19450001,0.19450001,0.194625,0.194625,0.194625,0.194625,0.19475001,0.19475001,0.194875,0.19500001,0.19512501,0.19525,0.19537501,0.19537501,0.19550002,0.19550002,0.195625,0.19575001,0.19575001,0.195875,0.19600001,0.19625,0.19625,0.19637501,0.19662501,0.19675002,0.19700001,0.19725001,0.19737501,0.1975,0.19775,0.19787501,0.19787501,0.19800001,0.19800001,0.19800001,0.19800001,0.19800001,0.198125,0.198125,0.198125,0.198125,0.19825001,0.19825001,0.19837502,0.19837502,0.19837502,0.1985,0.1985,0.19875,0.19900002,0.199125,0.19925001,0.199375,0.19950001,0.19962502,0.19962502,0.19962502,0.19975,0.19987501,0.19987501,0.19987501,0.19987501,0.19975,0.19975,0.19975,0.19975,0.19975,0.19962502,0.19962502,0.19950001,0.199375,0.199375,0.199375,0.199375,0.19950001,0.19950001,0.19950001,0.19950001,0.19950001,0.19950001,0.199375,0.199375,0.199125,0.19900002,0.19887501,0.19887501,0.19887501,0.19887501,0.199125,0.19925001,0.19925001,0.19925001,0.19925001,0.199375,0.19925001,0.19900002,0.19900002,0.19887501,0.19875,0.19875,0.19862501,0.19875,0.19862501,0.19862501,0.19862501,0.19887501,0.19887501,0.19887501,0.19887501,0.19875,0.19875,0.19862501,0.1985,0.1985,0.19837502,0.19825001,0.19825001,0.19825001,0.198125,0.198125,0.19800001,0.19787501,0.19787501,0.19775,0.19762501,0.1975,0.19737501,0.1975,0.1975,0.19737501,0.19737501,0.19737501,0.19725001,0.19737501,0.1975,0.19737501,0.19737501,0.19737501,0.19737501,0.19737501,0.19725001,0.19700001,0.196875,0.19675002,0.1965,0.19637501,0.19637501,0.19637501,0.19625,0.19612502
nan,nan,nan,nan,nan,nan,nan,nan,nan,nan,nan,nan,nan,nan,nan,nan,2.473,2.4825,2.4636252,2.473,2.5113752,2.52125,2.5815,2.561125,2.561125,2.5815,2.61275,2.60225,2.591875,2.591875,2.591875,2.5815,2.561125,2.551,2.551,2.551,2.561125,2.561125,2.561125,2.551,2.551,2.551,2.5410001,2.551,2.551,2.5410001,2.5310001,2.52125,2.5310001,2.5410001,2.5410001,2.551,2.561125,2.561125,2.5815,2.5410001,2.52125,2.492125,2.4636252,2.4636252,2.4636252,2.4450002,2.3907502,2.37325,0.20762502,0.20750001,0.20700002,0.20712501,0.20712501,0.20712501,0.20700002,0.20687501,0.20675,0.20675,0.20675,0.20675,0.20662501,0.20650001,0.206375,0.206375,0.206375,0.206375,0.20625001,0.20625001,0.20625001,0.20625001,0.206125,0.20625001,0.206375,0.206375,0.20650001,0.20650001,0.20662501,0.20675,0.20700002,0.207375,0.20775001,0.208,0.20825002,0.20825002,0.20850001,0.208625,0.20875001,0.20887502,0.20925,0.209625,0.21000001,0.21012501,0.21012501,0.21025,0.21025,0.21050002,0.21100001,0.21112502,0.21112502,0.21100001,0.21100001,0.21100001,0.21100001,0.21100001,0.210875,0.210875,0.21075001,0.21037501,0.21025,0.20925,0.2045,0.2045,0.20425001,0.203875,0.20337501,0.20300001,0.201,0.20112501,0.2,0.19962502,0.199125,0.19900002,0.19875,0.1985,0.19837502,0.19825001,0.198125,0.19787501,0.1975,0.197125,0.196875,0.19662501,0.19662501,0.1965,0.19637501,0.19637501,0.19612502,0.195875,0.19575001,0.195625,0.19537501,0.19525,0.19500001,0.19500001,0.194875,0.19475001,0.19475001,0.194625,0.194625,0.194625,0.19475001,0.194875,0.194875,0.194875,0.19475001,0.19475001,0.194625,0.194625,0.19437501,0.19425,0.19412501,0.194,0.194,0.194,0.194,0.19412501,0.19412501,0.19412501,0.19412501,0.19412501,0.19412501,0.19425,0.19425,0.19425,0.19412501,0.194,0.194,0.194,0.19387501,0.19375001,0.193625,0.19350001,0.193625,0.19375001,0.19387501,0.194,0.19412501,0.19425,0.19425,0.19425,0.19437501,0.19450001,0.19450001,0.19450001,0.194625,0.194625,0.19475001,0.19475001,0.194875,0.19500001,0.19500001,0.19512501,0.19525,0.19537501,0.19537501,0.19537501,0.19550002,0.19550002,0.19575001,0.195875,0.19600001,0.19625,0.19637501,0.1965,0.19662501,0.19675002,0.19700001,0.197125,0.19725001,0.1975,0.19775,0.19787501,0.19787501,0.19787501,0.19787501,0.19787501,0.19800001,0.198125,0.198125,0.198125,0.198125,0.19825001,0.19837502,0.19837502,0.19837502,0.19837502,0.19837502,0.1985,0.19862501,0.19887501,0.19900002,0.199125,0.19925001,0.19950001,0.19962502,0.19962502,0.19962502,0.19962502,0.19975,0.19975,0.19975,0.19975,0.19962502,0.19962502,0.19962502,0.19962502,0.19962502,0.19950001,0.19950001,0.199375,0.199375,0.199375,0.199375,0.199375,0.199375,0.199375,0.19950001,0.19950001,0.19950001,0.199375,0.199375,0.199375,0.19925001,0.19900002,0.19887501,0.19887501,0.19887501,0.19900002,0.199125,0.199125,0.19900002,0.19900002,0.199125,0.199125,0.19900002,0.19875,0.19862501,0.19862501,0.1985,0.1985,0.1985,0.1985,0.1985,0.1985,0.19862501,0.19875,0.19875,0.19875,0.19875,0.19875,0.19862501,0.1985,0.19837502,0.19837502,0.19825001,0.198125,0.19800001,0.19800001,0.19800001,0.19787501,0.19775,0.19775,0.1975,0.1975,0.19725001,0.197125,0.197125,0.19725001,0.19725001,0.19725001,0.19725001,0.197125,0.19725001,0.19725001,0.19737501,0.19725001,0.19725001,0.19737501,0.19737501,0.19725001,0.197125,0.196875,0.19675002,0.1965,0.19637501,0.19637501,0.19637501,0.19625,0.19612502,0.19612502
nan,nan,nan,nan,nan,nan,nan,nan,nan,nan,nan,nan,nan,nan,nan,nan,2.473,2.492125,2.4825,2.5017502,2.52125,2.5310001,2.591875,2.561125,2.5410001,2.561125,2.591875,2.591875,2.591875,2.5815,2.5712502,2.5712502,2.5410001,2.5410001,2.5310001,2.5310001,2.551,2.551,2.5410001,2.5310001,2.5410001,2.551,2.551,2.561125,2.551,2.5410001,2.5410001,2.5310001,2.5310001,2.5310001,2.5410001,2.561125,2.561125,2.5712502,2.5815,2.5410001,2.5310001,2.5113752,2.5017502,2.492125,2.492125,2.4636252,2.43575,2.43575,0.20787501,0.20775001,0.20750001,0.20750001,0.20750001,0.207375,0.20725001,0.20712501,0.20700002,0.20700002,0.20687501,0.20675,0.20675,0.20662501,0.20650001,0.20650001,0.20650001,0.20650001,0.206375,0.206375,0.206375,0.20625001,0.206125,0.206125,0.206125,0.20625001,0.206375,0.206375,0.20662501,0.20675,0.20687501,0.207375,0.20775001,0.208,0.20825002,0.20825002,0.20850001,0.208625,0.20887502,0.209,0.20925,0.209625,0.20987502,0.21000001,0.21012501,0.21012501,0.21025,0.21050002,0.210875,0.21100001,0.210875,0.210875,0.210875,0.21100001,0.210875,0.210875,0.21075001,0.21075001,0.21050002,0.21037501,0.21012501,0.20975001,0.20462501,0.20462501,0.2045,0.20412502,0.2035,0.20312501,0.201,0.201,0.200625,0.19975,0.199125,0.19887501,0.19875,0.1985,0.19837502,0.19825001,0.19800001,0.19775,0.1975,0.197125,0.196875,0.19662501,0.19637501,0.19637501,0.19637501,0.19612502,0.195875,0.195625,0.195625,0.19550002,0.19525,0.19500001,0.194875,0.194875,0.19475001,0.19475001,0.194625,0.194625,0.194625,0.19450001,0.194625,0.19475001,0.194875,0.19475001,0.194625,0.19450001,0.19450001,0.19450001,0.19437501,0.19425,0.19412501,0.19412501,0.194,0.194,0.19387501,0.194,0.194,0.194,0.19387501,0.19387501,0.19387501,0.194,0.194,0.194,0.194,0.19387501,0.193625,0.19375001,0.193625,0.19350001,0.19350001,0.193375,0.193375,0.19350001,0.19350001,0.193625,0.19375001,0.19387501,0.19412501,0.19425,0.19425,0.19425,0.19425,0.19450001,0.19450001,0.194625,0.194625,0.19475001,0.194875,0.194875,0.194875,0.19500001,0.19525,0.19525,0.19525,0.19525,0.19537501,0.19537501,0.19550002,0.195625,0.195875,0.19612502,0.19625,0.19637501,0.19637501,0.1965,0.19675002,0.19675002,0.196875,0.19700001,0.19675002,0.1975,0.1975,0.19737501,0.1975,0.19762501,0.19787501,0.19800001,0.19800001,0.19800001,0.198125,0.19825001,0.19825001,0.19837502,0.19837502,0.19837502,0.19825001,0.19837502,0.1985,0.19862501,0.19875,0.19887501,0.19900002,0.19925001,0.19950001,0.19950001,0.19950001,0.19962502,0.19962502,0.19962502,0.19962502,0.19962502,0.19962502,0.19950001,0.19950001,0.19950001,0.19950001,0.199375,0.199375,0.199375,0.199375,0.199375,0.199375,0.199375,0.199375,0.199375,0.19950001,0.19950001,0.19950001,0.199375,0.199375,0.199375,0.19925001,0.199125,0.19887501,0.19900002,0.19900002,0.19900002,0.19900002,0.19900002,0.19887501,0.19887501,0.19900002,0.19900002,0.19875,0.1985,0.19837502,0.19837502,0.19837502,0.19825001,0.19825001,0.19837502,0.19837502,0.19825001,0.1985,0.19862501,0.19862501,0.19862501,0.1985,0.1985,0.19837502,0.19825001,0.19825001,0.19825001,0.198125,0.19800001,0.19787501,0.19787501,0.19787501,0.19775,0.19762501,0.1975,0.19737501,0.19725001,0.19700001,0.19700001,0.19700001,0.19700001,0.19700001,0.19700001,0.19700001,0.19700001,0.19700001,0.19700001,0.197125,0.197125,0.197125,0.19725001,0.197125,0.19700001,0.196875,0.19675002,0.19662501,0.19637501,0.19625,0.19612502,0.19612502,0.19612502,0.19612502,0.19612502
nan,nan,nan,nan,nan,nan,nan,nan,nan,nan,nan,nan,nan,nan,nan,nan,nan,2.4825,2.492125,2.5113752,2.5310001,2.5410001,2.5815,2.561125,2.5410001,2.561125,2.5815,2.5712502,2.5815,2.5712502,2.561125,2.5410001,2.52125,2.5113752,2.5113752,2.5113752,2.5310001,2.52125,2.52125,2.5310001,2.5310001,2.551,2.561125,2.561125,2.561125,2.551,2.5410001,2.5310001,2.52125,2.5310001,2.5410001,2.551,2.5712502,2.561125,2.5712502,2.551,2.5410001,2.5310001,2.5310001,2.5310001,2.52125,2.5017502,2.492125,2.492125,0.20812501,0.208,0.20787501,0.20775001,0.20762502,0.20750001,0.20750001,0.207375,0.20725001,0.20725001,0.20700002,0.20687501,0.20687501,0.20675,0.20662501,0.20662501,0.20650001,0.206375,0.20625001,0.20625001,0.206375,0.20625001,0.20600002,0.20575,0.20587501,0.20587501,0.20600002,0.20625001,0.20675,0.20687501,0.20700002,0.207375,0.20775001,0.208,0.20812501,0.20825002,0.208375,0.208625,0.20887502,0.209,0.20925,0.20950001,0.20975001,0.20975001,0.20975001,0.21000001,0.21012501,0.21025,0.21037501,0.21050002,0.21062501,0.21075001,0.21050002,0.21050002,0.21050002,0.21050002,0.21075001,0.21075001,0.21075001,0.21050002,0.21037501,0.21037501,0.20475002,0.20462501,0.20462501,0.20425001,0.20375001,0.20312501,0.201,0.20112501,0.19987501,0.19962502,0.199125,0.19887501,0.19875,0.1985,0.19825001,0.198125,0.19800001,0.19787501,0.1975,0.197125,0.196875,0.19662501,0.19637501,0.19625,0.19625,0.19600001,0.19575001,0.195625,0.19550002,0.19537501,0.19512501,0.194875,0.19475001,0.19475001,0.19475001,0.194625,0.194625,0.19450001,0.19450001,0.19450001,0.194625,0.19475001,0.19475001,0.194625,0.19450001,0.19437501,0.19437501,0.19437501,0.19425,0.19412501,0.194,0.194,0.19387501,0.19387501,0.19387501,0.19387501,0.19387501,0.19387501,0.19375001,0.193625,0.193625,0.193625,0.19375001,0.19375001,0.193625,0.193625,0.19350001,0.19350001,0.19350001,0.193375,0.19325002,0.19325002,0.19325002,0.193375,0.193375,0.19350001,0.19350001,0.193625,0.19387501,0.194,0.19412501,0.19425,0.19425,0.19437501,0.19437501,0.19437501,0.19437501,0.19450001,0.194625,0.194625,0.19475001,0.194875,0.194875,0.19500001,0.19500001,0.19512501,0.19525,0.19525,0.19537501,0.19550002,0.19575001,0.19600001,0.19612502,0.19625,0.19637501,0.19637501,0.1965,0.1965,0.19662501,0.19662501,0.196875,0.19700001,0.19700001,0.19700001,0.19700001,0.19725001,0.19762501,0.19775,0.19787501,0.19787501,0.19800001,0.19825001,0.19825001,0.19825001,0.19825001,0.19825001,0.19825001,0.19825001,0.19825001,0.19837502,0.1985,0.19862501,0.19875,0.19887501,0.199125,0.19925001,0.199375,0.199375,0.19950001,0.19950001,0.19950001,0.19950001,0.199375,0.199375,0.19950001,0.199375,0.199375,0.19925001,0.19925001,0.19925001,0.19925001,0.19925001,0.19925001,0.19925001,0.19925001,0.19925001,0.199375,0.199375,0.19925001,0.19925001,0.19925001,0.199125,0.199125,0.19900002,0.19875,0.19875,0.19875,0.19887501,0.19887501,0.19900002,0.19887501,0.19887501,0.19887501,0.19887501,0.1985,0.19825001,0.198125,0.198125,0.198125,0.19800001,0.19800001,0.198125,0.198125,0.198125,0.19825001,0.1985,0.1985,0.19837502,0.19837502,0.19837502,0.19825001,0.198125,0.19800001,0.19800001,0.19800001,0.19787501,0.19775,0.19775,0.19775,0.19762501,0.19737501,0.19725001,0.197125,0.19700001,0.196875,0.196875,0.19675002,0.19675002,0.19675002,0.19675002,0.19675002,0.19662501,0.19662501,0.19675002,0.19675002,0.19675002,0.196875,0.19700001,0.196875,0.19675002,0.19662501,0.1965,0.19637501,0.19625,0.19612502,0.19600001,0.195875,0.19600001,0.19600001,0.19600001
nan,nan,nan,nan,nan,nan,nan,nan,nan,nan,nan,nan,nan,nan,nan,nan,nan,2.492125,2.5113752,2.52125,2.5410001,2.561125,2.591875,2.561125,2.561125,2.5712502,2.5815,2.5712502,2.5712502,2.561125,2.561125,2.5410001,2.5113752,2.5017502,2.492125,2.5017502,2.52125,2.52125,2.5113752,2.52125,2.5310001,2.551,2.561125,2.561125,2.561125,2.5410001,2.5310001,2.52125,2.52125,2.52125,2.5310001,2.5410001,2.561125,2.561125,2.561125,2.551,2.5410001,2.5410001,2.5410001,2.5310001,2.5410001,2.5113752,2.492125,2.492125,0.208,0.20787501,0.20775001,0.20775001,0.20762502,0.20762502,0.20750001,0.20750001,0.207375,0.20725001,0.20700002,0.20700002,0.20687501,0.20675,0.20675,0.20675,0.20662501,0.20650001,0.206375,0.206375,0.206375,0.20625001,0.20600002,0.20575,0.20575,0.20587501,0.206125,0.20650001,0.20675,0.20675,0.20700002,0.207375,0.20787501,0.20825002,0.20825002,0.208375,0.208375,0.208625,0.20887502,0.209,0.20937501,0.20950001,0.209625,0.209625,0.209625,0.209625,0.20975001,0.20987502,0.21000001,0.21025,0.21037501,0.21037501,0.21025,0.21012501,0.21012501,0.21025,0.21037501,0.21062501,0.21050002,0.21037501,0.21025,0.20925,0.20475002,0.20475002,0.2045,0.20437501,0.20375001,0.20325,0.20112501,0.20125002,0.19900002,0.19862501,0.19875,0.19862501,0.19862501,0.19837502,0.198125,0.19800001,0.19800001,0.19775,0.1975,0.19725001,0.19675002,0.1965,0.19637501,0.19612502,0.19600001,0.195875,0.195625,0.19537501,0.19537501,0.19525,0.19500001,0.194875,0.19475001,0.19475001,0.19475001,0.194625,0.194625,0.19450001,0.19450001,0.19450001,0.194625,0.194625,0.194625,0.194625,0.19450001,0.19425,0.19425,0.19425,0.19412501,0.194,0.19387501,0.19387501,0.19375001,0.19375001,0.193625,0.193625,0.193625,0.193625,0.19350001,0.193375,0.193375,0.193375,0.193375,0.193375,0.193375,0.193375,0.19325002,0.193375,0.193375,0.19325002,0.19325002,0.19312501,0.19312501,0.19312501,0.19325002,0.19325002,0.193375,0.19350001,0.193625,0.19387501,0.19387501,0.19387501,0.19412501,0.19425,0.19425,0.19425,0.19425,0.19437501,0.19437501,0.19450001,0.194625,0.19475001,0.19475001,0.19475001,0.194625,0.194625,0.19475001,0.19500001,0.19512501,0.19525,0.195625,0.195875,0.19600001,0.19612502,0.19625,0.19625,0.19637501,0.19637501,0.19637501,0.1965,0.19662501,0.19675002,0.19675002,0.19675002,0.19675002,0.197125,0.1975,0.19762501,0.19775,0.19775,0.19800001,0.198125,0.19825001,0.19825001,0.19825001,0.19825001,0.198125,0.19825001,0.19825001,0.19825001,0.19837502,0.1985,0.19862501,0.19875,0.19887501,0.199125,0.19925001,0.19925001,0.19925001,0.19925001,0.199125,0.199125,0.199125,0.19925001,0.19925001,0.19925001,0.199125,0.199125,0.199125,0.199125,0.199125,0.199125,0.199125,0.199125,0.199125,0.199125,0.19925001,0.19925001,0.199125,0.19900002,0.19900002,0.19887501,0.19887501,0.19875,0.19862501,0.19862501,0.19862501,0.19862501,0.19875,0.19875,0.19875,0.19875,0.19887501,0.19887501,0.1985,0.19825001,0.198125,0.198125,0.198125,0.19800001,0.19787501,0.19787501,0.19800001,0.198125,0.19825001,0.19837502,0.19837502,0.19825001,0.19825001,0.19825001,0.198125,0.19800001,0.19787501,0.19800001,0.19787501,0.19787501,0.19775,0.19762501,0.19762501,0.1975,0.19725001,0.197125,0.196875,0.196875,0.19675002,0.19662501,0.19662501,0.19662501,0.19662501,0.19662501,0.19662501,0.1965,0.1965,0.1965,0.1965,0.1965,0.19662501,0.196875,0.19675002,0.1965,0.19637501,0.19637501,0.19625,0.19625,0.19612502,0.19600001,0.195875,0.195875,0.195875,0.195875
nan,nan,nan,nan,nan,nan,nan,nan,nan,nan,nan,nan,nan,nan,nan,nan,nan,2.492125,2.52125,2.5410001,2.551,2.591875,2.591875,2.5815,2.5815,2.591875,2.5815,2.561125,2.5410001,2.5410001,2.5310001,2.52125,2.5017502,2.5017502,2.4825,2.492125,2.5113752,2.5113752,2.5113752,2.5113752,2.52125,2.5410001,2.551,2.551,2.551,2.551,2.5410001,2.5410001,2.5310001,2.5410001,2.5410001,2.551,2.5712502,2.561125,2.5712502,2.551,2.5410001,2.5410001,2.5410001,2.5310001,2.5410001,2.52125,2.5113752,2.5113752,0.20825002,0.20812501,0.208,0.20812501,0.208,0.20775001,0.20762502,0.20750001,0.207375,0.20725001,0.20700002,0.20687501,0.20687501,0.20675,0.20675,0.20675,0.20662501,0.20650001,0.20650001,0.20650001,0.206375,0.20625001,0.206125,0.20587501,0.20587501,0.20600002,0.206125,0.206375,0.20662501,0.20675,0.20700002,0.207375,0.20787501,0.20825002,0.20825002,0.208375,0.20850001,0.20875001,0.209,0.20912501,0.20937501,0.20950001,0.209625,0.209625,0.20975001,0.209625,0.209625,0.209625,0.20975001,0.21000001,0.21012501,0.21012501,0.21000001,0.21000001,0.21000001,0.21000001,0.21025,0.21037501,0.21037501,0.21025,0.21000001,0.20950001,0.20500001,0.20500001,0.20462501,0.20425001,0.20375001,0.20325,0.20112501,0.200625,0.19862501,0.19875,0.19862501,0.1985,0.1985,0.19837502,0.198125,0.19800001,0.19787501,0.1975,0.19725001,0.1965,0.1965,0.19625,0.19612502,0.19600001,0.195875,0.195625,0.19537501,0.19525,0.19525,0.19525,0.19500001,0.19475001,0.194625,0.194625,0.194625,0.194625,0.19450001,0.19450001,0.19450001,0.19450001,0.19450001,0.194625,0.194625,0.19450001,0.19437501,0.19425,0.19412501,0.194,0.194,0.19375001,0.193625,0.193625,0.19375001,0.193625,0.19350001,0.19350001,0.19350001,0.193375,0.193375,0.19325002,0.19325002,0.19325002,0.19325002,0.19312501,0.19312501,0.19312501,0.193,0.19312501,0.19312501,0.193,0.193,0.19312501,0.193,0.19312501,0.19312501,0.19312501,0.19325002,0.193375,0.19350001,0.193625,0.19375001,0.19375001,0.19387501,0.194,0.19425,0.19425,0.19425,0.19425,0.19425,0.19437501,0.19450001,0.194625,0.194625,0.19450001,0.19437501,0.19437501,0.19450001,0.19475001,0.19475001,0.19500001,0.19525,0.194875,0.194875,0.19512501,0.195625,0.19600001,0.19612502,0.19625,0.19625,0.19637501,0.1965,0.19675002,0.19675002,0.19662501,0.19675002,0.196875,0.19725001,0.1975,0.19762501,0.19775,0.19787501,0.198125,0.198125,0.19825001,0.19825001,0.198125,0.198125,0.198125,0.198125,0.198125,0.19825001,0.19837502,0.1985,0.1985,0.19875,0.19887501,0.19900002,0.199125,0.19900002,0.19900002,0.19900002,0.19887501,0.19887501,0.19887501,0.19900002,0.19900002,0.19900002,0.19900002,0.19900002,0.199125,0.199125,0.199125,0.19900002,0.19900002,0.199125,0.199125,0.199125,0.199125,0.19900002,0.19887501,0.19887501,0.19887501,0.19875,0.19862501,0.1985,0.19837502,0.1985,0.1985,0.19862501,0.19862501,0.1985,0.1985,0.19875,0.19875,0.19862501,0.19837502,0.19825001,0.198125,0.19800001,0.19800001,0.19787501,0.19787501,0.19787501,0.19800001,0.198125,0.19825001,0.19825001,0.198125,0.198125,0.198125,0.19800001,0.19800001,0.19787501,0.19787501,0.19787501,0.19775,0.19762501,0.1975,0.1975,0.19737501,0.197125,0.196875,0.19675002,0.19662501,0.19662501,0.19662501,0.19662501,0.19662501,0.19662501,0.19675002,0.19662501,0.1965,0.19637501,0.19637501,0.19637501,0.1965,0.1965,0.19662501,0.19662501,0.19637501,0.19637501,0.19637501,0.19637501,0.19625,0.19625,0.19600001,0.195875,0.195875,0.195875,0.19575001
nan,nan,nan,nan,nan,nan,nan,nan,nan,nan,nan,nan,nan,nan,nan,nan,nan,2.52125,2.5410001,2.551,2.551,2.61275,2.591875,2.591875,2.591875,2.591875,2.591875,2.561125,2.5310001,2.52125,2.5113752,2.5113752,2.5017502,2.492125,2.4825,2.4825,2.5017502,2.5017502,2.5017502,2.5017502,2.5113752,2.5310001,2.5410001,2.551,2.551,2.551,2.551,2.5410001,2.551,2.5410001,2.551,2.561125,2.5712502,2.5712502,2.5712502,2.5410001,2.5410001,2.551,2.551,2.5410001,2.5410001,2.5310001,2.5410001,2.5310001,0.20825002,0.20812501,0.20825002,0.20825002,0.20825002,0.20812501,0.20775001,0.20762502,0.20750001,0.207375,0.20712501,0.20700002,0.20687501,0.20687501,0.20687501,0.20687501,0.20675,0.20662501,0.20662501,0.20662501,0.20650001,0.20650001,0.20625001,0.206125,0.206125,0.20625001,0.206375,0.20662501,0.20675,0.20687501,0.20700002,0.207375,0.20787501,0.20825002,0.208375,0.20850001,0.208625,0.209,0.20925,0.20937501,0.20950001,0.20975001,0.20987502,0.20987502,0.20987502,0.20975001,0.209625,0.209625,0.209625,0.209625,0.20975001,0.20975001,0.209625,0.20950001,0.209625,0.209625,0.21000001,0.21025,0.21025,0.21025,0.21000001,0.209625,0.2055,0.20537502,0.20500001,0.2045,0.20400001,0.20337501,0.202875,0.200625,0.19862501,0.19862501,0.1985,0.1985,0.19837502,0.19825001,0.19800001,0.19787501,0.19762501,0.19725001,0.196875,0.1965,0.19625,0.19600001,0.195875,0.19575001,0.195625,0.19550002,0.19537501,0.19525,0.19525,0.19512501,0.19500001,0.19475001,0.194625,0.19450001,0.19450001,0.19450001,0.19450001,0.19450001,0.19450001,0.19437501,0.19450001,0.194625,0.19450001,0.19437501,0.19425,0.19412501,0.194,0.19375001,0.19375001,0.19350001,0.19350001,0.19350001,0.19350001,0.193375,0.193375,0.19350001,0.19350001,0.193375,0.19325002,0.19325002,0.19312501,0.19312501,0.193,0.19287501,0.19287501,0.19287501,0.19287501,0.193,0.193,0.19275,0.19287501,0.19287501,0.19287501,0.193,0.193,0.193,0.193,0.19312501,0.19325002,0.193375,0.19350001,0.19350001,0.193625,0.193625,0.19375001,0.19387501,0.194,0.19412501,0.19412501,0.19412501,0.19425,0.19425,0.19437501,0.19425,0.19425,0.19425,0.19425,0.19437501,0.19450001,0.194625,0.19475001,0.19475001,0.194875,0.19512501,0.19525,0.195625,0.195875,0.19600001,0.19612502,0.19625,0.19637501,0.19662501,0.19662501,0.19662501,0.19662501,0.196875,0.197125,0.19737501,0.19737501,0.1975,0.19787501,0.198125,0.198125,0.198125,0.198125,0.19800001,0.19800001,0.198125,0.19800001,0.19800001,0.198125,0.19825001,0.19837502,0.19837502,0.19862501,0.19875,0.19887501,0.19887501,0.19887501,0.19875,0.19875,0.19862501,0.19862501,0.19862501,0.19875,0.19875,0.19875,0.19887501,0.19887501,0.19900002,0.19900002,0.19900002,0.19900002,0.19900002,0.19887501,0.19900002,0.19900002,0.19900002,0.19887501,0.19875,0.19875,0.19875,0.19862501,0.1985,0.19837502,0.19825001,0.19837502,0.19837502,0.19837502,0.19837502,0.19837502,0.19837502,0.1985,0.19862501,0.19862501,0.1985,0.198125,0.19800001,0.19800001,0.19787501,0.19787501,0.19787501,0.19787501,0.19787501,0.19800001,0.198125,0.19800001,0.19800001,0.19800001,0.19800001,0.19800001,0.19787501,0.19787501,0.19787501,0.19775,0.19775,0.1975,0.19737501,0.19737501,0.19725001,0.19700001,0.196875,0.19662501,0.19662501,0.19662501,0.19662501,0.19662501,0.19662501,0.19662501,0.19662501,0.1965,0.19637501,0.19625,0.19625,0.19625,0.19637501,0.19637501,0.19637501,0.19637501,0.19625,0.19625,0.19625,0.19625,0.19612502,0.19612502,0.19600001,0.195875,0.195875,0.19575001,0.195875
nan,nan,nan,nan,nan,nan,nan,nan,nan,nan,nan,nan,nan,nan,nan,nan,nan,2.551,2.551,2.551,2.561125,2.61275,2.5815,2.5815,2.591875,2.591875,2.591875,2.551,2.52125,2.5113752,2.5017502,2.5017502,2.4825,2.4825,2.473,2.473,2.4825,2.492125,2.4825,2.492125,2.5017502,2.52125,2.52125,2.5310001,2.5410001,2.5410001,2.5310001,2.5310001,2.5310001,2.5310001,2.5410001,2.551,2.551,2.561125,2.561125,2.551,2.561125,2.561125,2.561125,2.551,2.561125,2.551,2.551,2.5410001,0.20825002,0.20825002,0.20850001,0.208375,0.208375,0.208375,0.20812501,0.20787501,0.20775001,0.20762502,0.20725001,0.20700002,0.20687501,0.20687501,0.20687501,0.20675,0.20675,0.20662501,0.20662501,0.20662501,0.20662501,0.20650001,0.206375,0.20625001,0.206375,0.20662501,0.20675,0.20687501,0.20687501,0.20700002,0.20712501,0.20750001,0.208,0.20825002,0.208375,0.20850001,0.208625,0.20887502,0.20912501,0.20925,0.20950001,0.20975001,0.21000001,0.21000001,0.21000001,0.20975001,0.209625,0.20950001,0.20950001,0.20937501,0.20950001,0.20950001,0.20937501,0.20937501,0.20950001,0.209625,0.21000001,0.21025,0.21025,0.21025,0.21012501,0.20987502,0.20575,0.2055,0.20525001,0.20425001,0.20400001,0.20300001,0.202875,0.200375,0.19862501,0.1985,0.19837502,0.19825001,0.19825001,0.198125,0.19787501,0.19762501,0.19737501,0.19700001,0.19675002,0.1965,0.19612502,0.195875,0.19575001,0.195625,0.19550002,0.19537501,0.19525,0.19525,0.19525,0.19512501,0.19500001,0.19475001,0.19475001,0.194625,0.19450001,0.19450001,0.19450001,0.19437501,0.19450001,0.19437501,0.19450001,0.19450001,0.19450001,0.19437501,0.19425,0.194,0.19375001,0.19350001,0.19350001,0.193375,0.19325002,0.193375,0.193375,0.193375,0.19325002,0.19325002,0.19325002,0.19325002,0.193,0.19312501,0.193,0.19287501,0.19275,0.19275,0.19275,0.19275,0.19275,0.19275,0.19275,0.19275,0.19275,0.19275,0.19275,0.19275,0.19275,0.19275,0.19275,0.19287501,0.19287501,0.19312501,0.19312501,0.19325002,0.19350001,0.19350001,0.19350001,0.193625,0.193625,0.19375001,0.19387501,0.19387501,0.194,0.194,0.194,0.194,0.194,0.194,0.19412501,0.19412501,0.19425,0.19437501,0.19437501,0.19450001,0.19475001,0.194875,0.19525,0.19550002,0.19575001,0.195875,0.19600001,0.19612502,0.19625,0.1965,0.1965,0.1965,0.1965,0.19662501,0.196875,0.19700001,0.19700001,0.19725001,0.19775,0.19800001,0.19800001,0.19800001,0.198125,0.19800001,0.19800001,0.19800001,0.19800001,0.19800001,0.19800001,0.198125,0.19825001,0.19825001,0.1985,0.19862501,0.19862501,0.19862501,0.19875,0.19862501,0.1985,0.1985,0.1985,0.1985,0.1985,0.1985,0.19862501,0.19862501,0.19875,0.19887501,0.19887501,0.19875,0.19875,0.19875,0.19875,0.19875,0.19875,0.19875,0.19862501,0.19862501,0.19862501,0.19862501,0.1985,0.19837502,0.19825001,0.198125,0.198125,0.198125,0.19825001,0.198125,0.19800001,0.19800001,0.19825001,0.1985,0.1985,0.19837502,0.19825001,0.19800001,0.19787501,0.19775,0.19775,0.19775,0.19775,0.19787501,0.19800001,0.19800001,0.19787501,0.19787501,0.19787501,0.19787501,0.19787501,0.19775,0.19775,0.19762501,0.19762501,0.1975,0.19725001,0.197125,0.197125,0.197125,0.19700001,0.196875,0.19675002,0.19662501,0.19675002,0.19675002,0.19675002,0.19662501,0.19662501,0.19662501,0.1965,0.19637501,0.19625,0.19612502,0.19625,0.19625,0.19625,0.19625,0.19625,0.19612502,0.19612502,0.19612502,0.19600001,0.19600001,0.19600001,0.19600001,0.195875,0.19575001,0.19575001,0.19575001
nan,nan,nan,nan,nan,nan,nan,nan,nan,nan,nan,nan,nan,nan,nan,nan,nan,2.551,2.5712502,2.5712502,2.5815,2.6233752,2.5712502,2.5712502,2.5815,2.5815,2.5712502,2.5410001,2.5113752,2.492125,2.4825,2.473,2.473,2.4636252,2.4450002,2.4450002,2.4636252,2.473,2.473,2.4825,2.492125,2.5017502,2.52125,2.5310001,2.5310001,2.5310001,2.52125,2.52125,2.52125,2.52125,2.5310001,2.5410001,2.551,2.551,2.551,2.561125,2.561125,2.5712502,2.561125,2.551,2.551,2.5310001,2.5410001,2.5410001,0.20850001,0.208625,0.20887502,0.20887502,0.20875001,0.20875001,0.208625,0.20850001,0.208375,0.20812501,0.20762502,0.207375,0.20700002,0.20687501,0.20700002,0.20687501,0.20675,0.20662501,0.20662501,0.20675,0.20675,0.20662501,0.206375,0.20625001,0.20650001,0.20675,0.20700002,0.20700002,0.20725001,0.207375,0.20750001,0.20775001,0.208,0.208375,0.208375,0.20850001,0.208625,0.20875001,0.209,0.20925,0.20950001,0.20987502,0.21025,0.21025,0.21025,0.21012501,0.21000001,0.20975001,0.20975001,0.209625,0.20950001,0.20950001,0.20937501,0.20937501,0.20937501,0.20950001,0.20987502,0.21025,0.21025,0.21025,0.21012501,0.20975001,0.20525001,0.20525001,0.20525001,0.20312501,0.20225,0.20137501,0.20137501,0.20025001,0.19862501,0.1985,0.19825001,0.198125,0.19800001,0.19787501,0.19775,0.19737501,0.197125,0.196875,0.19662501,0.19637501,0.19612502,0.195875,0.19575001,0.195625,0.19537501,0.19525,0.19525,0.19512501,0.19512501,0.19500001,0.194875,0.19475001,0.194625,0.19450001,0.19437501,0.19437501,0.19437501,0.19437501,0.19437501,0.19437501,0.19437501,0.19450001,0.19437501,0.19437501,0.19412501,0.19387501,0.193625,0.19325002,0.19312501,0.19312501,0.193,0.19312501,0.193375,0.19325002,0.19312501,0.19312501,0.19312501,0.193,0.19287501,0.19275,0.19275,0.19275,0.19275,0.19275,0.19262502,0.19250001,0.19262502,0.19262502,0.19262502,0.19262502,0.19250001,0.19262502,0.19262502,0.19262502,0.19262502,0.19275,0.19275,0.19275,0.19275,0.19287501,0.193,0.193,0.19325002,0.19325002,0.193375,0.193375,0.19350001,0.19350001,0.193625,0.193625,0.19375001,0.19375001,0.19375001,0.19387501,0.19387501,0.19387501,0.194,0.19412501,0.19412501,0.19425,0.19425,0.19437501,0.194625,0.19475001,0.194875,0.19525,0.19537501,0.19550002,0.19575001,0.19575001,0.19525,0.19637501,0.19637501,0.19637501,0.19637501,0.1965,0.19662501,0.19675002,0.196875,0.19700001,0.1975,0.19775,0.19787501,0.19787501,0.19787501,0.19800001,0.19800001,0.19800001,0.19800001,0.19800001,0.19800001,0.19800001,0.198125,0.198125,0.19825001,0.19837502,0.19837502,0.1985,0.1985,0.19837502,0.19825001,0.19837502,0.19825001,0.19825001,0.19825001,0.19837502,0.1985,0.1985,0.19862501,0.19862501,0.19862501,0.19862501,0.19862501,0.19862501,0.19862501,0.19862501,0.19862501,0.1985,0.1985,0.1985,0.1985,0.1985,0.1985,0.19825001,0.198125,0.19800001,0.19787501,0.19800001,0.19800001,0.19787501,0.19775,0.19762501,0.1975,0.1975,0.198125,0.198125,0.198125,0.19787501,0.19787501,0.19787501,0.19787501,0.19775,0.19775,0.19787501,0.19787501,0.19787501,0.19787501,0.19787501,0.19787501,0.19787501,0.19787501,0.19775,0.19762501,0.1975,0.19737501,0.19725001,0.19700001,0.196875,0.196875,0.196875,0.196875,0.19675002,0.19675002,0.19675002,0.19675002,0.19675002,0.19675002,0.19675002,0.19662501,0.19662501,0.19637501,0.19625,0.19612502,0.19612502,0.19612502,0.19612502,0.19625,0.19625,0.19612502,0.19600001,0.19600001,0.19600001,0.195875,0.19600001,0.19600001,0.195875,0.19575001,0.19575001,0.195625,0.19575001
nan,nan,nan,nan,nan,nan,nan,nan,nan,nan,nan,nan,nan,nan,nan,nan,nan,2.5815,2.591875,2.5815,2.5712502,2.61275,2.5712502,2.5712502,2.561125,2.551,2.5410001,2.52125,2.492125,2.4825,2.4636252,2.4636252,2.4636252,2.4636252,2.4450002,2.43575,2.4450002,2.45425,2.45425,2.473,2.473,2.492125,2.5017502,2.5017502,2.5113752,2.5113752,2.5113752,2.5113752,2.5113752,2.52125,2.52125,2.5310001,2.5410001,2.551,2.551,2.561125,2.5712502,2.5712502,2.551,2.5410001,2.5310001,2.52125,2.5310001,2.5310001,2.5310001,2.5113752,0.20912501,0.209,0.209,0.209,0.20887502,0.20875001,0.208625,0.20850001,0.208,0.20750001,0.20712501,0.20700002,0.20700002,0.20687501,0.20675,0.20675,0.20675,0.20675,0.20687501,0.20675,0.20675,0.20675,0.20687501,0.20700002,0.20725001,0.207375,0.20750001,0.20762502,0.20762502,0.20787501,0.20825002,0.208375,0.208375,0.208375,0.20850001,0.20875001,0.209,0.20912501,0.20937501,0.20975001,0.21000001,0.21012501,0.21012501,0.21012501,0.21000001,0.20975001,0.209625,0.209625,0.20950001,0.20950001,0.20950001,0.20950001,0.20950001,0.20975001,0.21012501,0.21037501,0.21050002,0.21050002,0.21037501,0.21012501,0.20537502,0.20525001,0.205125,0.20312501,0.20225,0.20187502,0.20137501,0.19875,0.19862501,0.1985,0.19825001,0.198125,0.19800001,0.19787501,0.19762501,0.19737501,0.197125,0.196875,0.19662501,0.19637501,0.19625,0.19600001,0.195875,0.195625,0.19550002,0.19525,0.19525,0.19512501,0.19512501,0.19500001,0.194875,0.19475001,0.19450001,0.19437501,0.19437501,0.19437501,0.19437501,0.19425,0.19425,0.19425,0.19425,0.19425,0.19425,0.19412501,0.194,0.19387501,0.19350001,0.19325002,0.19312501,0.193,0.193,0.193,0.19312501,0.193,0.19275,0.19287501,0.19287501,0.19275,0.19275,0.19275,0.19275,0.19262502,0.19262502,0.19262502,0.19250001,0.192375,0.192375,0.19250001,0.19250001,0.192375,0.192375,0.192375,0.192375,0.192375,0.19262502,0.19262502,0.19262502,0.19262502,0.19275,0.19275,0.19275,0.19287501,0.193,0.19312501,0.19325002,0.19325002,0.19325002,0.19325002,0.193375,0.19350001,0.19350001,0.193375,0.19350001,0.19350001,0.193625,0.193625,0.19375001,0.194,0.194,0.19412501,0.19425,0.19425,0.19437501,0.19450001,0.194625,0.194875,0.19512501,0.19512501,0.19525,0.19525,0.19525,0.19612502,0.19625,0.19625,0.19625,0.19637501,0.19637501,0.19662501,0.19662501,0.19675002,0.197125,0.19737501,0.19762501,0.19762501,0.19775,0.19775,0.19787501,0.19787501,0.19787501,0.19787501,0.19787501,0.19787501,0.19787501,0.19800001,0.198125,0.198125,0.198125,0.19825001,0.19825001,0.198125,0.198125,0.198125,0.198125,0.198125,0.198125,0.19825001,0.19825001,0.19837502,0.1985,0.1985,0.1985,0.1985,0.1985,0.1985,0.1985,0.1985,0.1985,0.19837502,0.19837502,0.19837502,0.19837502,0.19837502,0.19825001,0.198125,0.19787501,0.19787501,0.19787501,0.19775,0.19762501,0.1975,0.19737501,0.1975,0.19762501,0.19762501,0.19787501,0.19800001,0.19800001,0.19787501,0.19787501,0.19787501,0.19787501,0.19775,0.19775,0.19775,0.19787501,0.19787501,0.19787501,0.19787501,0.19775,0.19775,0.19775,0.19762501,0.1975,0.19737501,0.19725001,0.197125,0.19700001,0.196875,0.196875,0.196875,0.19675002,0.19675002,0.19675002,0.19675002,0.19675002,0.19675002,0.19675002,0.19675002,0.19662501,0.19637501,0.19625,0.19625,0.19612502,0.19600001,0.19600001,0.19612502,0.19612502,0.19600001,0.19600001,0.195875,0.195875,0.195875,0.195875,0.195875,0.195875,0.195875,0.19575001,0.19550002,0.19550002,0.195625
nan,nan,nan,nan,nan,nan,nan,nan,nan,nan,nan,nan,nan,nan,nan,nan,nan,2.591875,2.5815,2.5712502,2.561125,2.5712502,2.561125,2.561125,2.551,2.5310001,2.52125,2.5113752,2.4825,2.4825,2.473,2.4636252,2.45425,2.4636252,2.45425,2.43575,2.43575,2.43575,2.4450002,2.45425,2.4636252,2.4825,2.4825,2.473,2.473,2.492125,2.492125,2.492125,2.492125,2.5017502,2.5113752,2.52125,2.5310001,2.5410001,2.5310001,2.5410001,2.551,2.561125,2.561125,2.5410001,2.5410001,2.5310001,2.551,2.551,2.551,2.5113752,0.20925,0.20925,0.20925,0.20925,0.209,0.20875001,0.20875001,0.208625,0.20825002,0.20775001,0.207375,0.20725001,0.20712501,0.20700002,0.20700002,0.20687501,0.20687501,0.20700002,0.20700002,0.20712501,0.20700002,0.20712501,0.207375,0.20750001,0.20775001,0.20775001,0.20787501,0.208,0.208,0.20812501,0.20825002,0.208375,0.20825002,0.208375,0.208375,0.208625,0.20887502,0.20912501,0.20937501,0.209625,0.20987502,0.21000001,0.21000001,0.21000001,0.20987502,0.209625,0.20950001,0.20950001,0.20950001,0.20950001,0.20950001,0.20950001,0.20950001,0.20987502,0.21037501,0.21075001,0.21075001,0.210875,0.21075001,0.21037501,0.20987502,0.20525001,0.20500001,0.205125,0.20225,0.20137501,0.201625,0.19875,0.19875,0.1985,0.19825001,0.19800001,0.19787501,0.19787501,0.1975,0.19725001,0.19700001,0.19675002,0.1965,0.19637501,0.19625,0.19600001,0.195875,0.19575001,0.19550002,0.19525,0.19512501,0.19512501,0.19500001,0.19500001,0.194875,0.19475001,0.19450001,0.19437501,0.19437501,0.19425,0.19425,0.19425,0.19425,0.19412501,0.19412501,0.19412501,0.194,0.19387501,0.19387501,0.19375001,0.19350001,0.19325002,0.19312501,0.193,0.19287501,0.193,0.19287501,0.19275,0.19275,0.19275,0.19275,0.19275,0.19262502,0.19262502,0.19262502,0.19262502,0.19250001,0.19250001,0.192375,0.19225001,0.192375,0.192375,0.192375,0.192375,0.19225001,0.19225001,0.19225001,0.192375,0.19250001,0.19262502,0.19250001,0.19262502,0.19262502,0.19275,0.19275,0.19287501,0.193,0.193,0.193,0.19287501,0.193,0.193,0.19312501,0.19312501,0.19312501,0.19312501,0.19312501,0.19312501,0.193375,0.19350001,0.193625,0.19375001,0.19387501,0.19387501,0.194,0.19412501,0.19425,0.19425,0.19437501,0.19450001,0.19475001,0.19475001,0.194875,0.194875,0.194875,0.195625,0.195875,0.19600001,0.19612502,0.19625,0.19637501,0.1965,0.1965,0.19662501,0.196875,0.197125,0.19725001,0.19737501,0.1975,0.19762501,0.19762501,0.19775,0.19775,0.19775,0.19775,0.19787501,0.19787501,0.19787501,0.19787501,0.19800001,0.19800001,0.198125,0.198125,0.19800001,0.19800001,0.19800001,0.19800001,0.19787501,0.19787501,0.19800001,0.198125,0.198125,0.198125,0.19825001,0.19825001,0.19825001,0.19825001,0.19825001,0.19825001,0.19825001,0.198125,0.198125,0.198125,0.198125,0.19825001,0.19825001,0.198125,0.19787501,0.19787501,0.19775,0.19762501,0.1975,0.19737501,0.19725001,0.19725001,0.19737501,0.1975,0.19775,0.19775,0.19800001,0.198125,0.19800001,0.19787501,0.19787501,0.19787501,0.19775,0.19775,0.19762501,0.19762501,0.19775,0.19762501,0.19762501,0.19762501,0.19762501,0.19762501,0.1975,0.19737501,0.197125,0.19700001,0.19700001,0.196875,0.196875,0.196875,0.196875,0.19675002,0.19675002,0.19675002,0.19675002,0.19675002,0.19675002,0.19675002,0.19662501,0.1965,0.19625,0.19612502,0.19600001,0.19600001,0.195875,0.195875,0.195875,0.195875,0.195875,0.19575001,0.19575001,0.19575001,0.19575001,0.19575001,0.195625,0.194875,0.19475001,0.194625,0.194875,0.19450001,0.19450001
nan,nan,nan,nan,nan,nan,nan,nan,nan,nan,nan,nan,nan,nan,nan,nan,nan,2.5815,2.5712502,2.551,2.5410001,2.5410001,2.5410001,2.561125,2.551,2.5410001,2.52125,2.5113752,2.4825,2.492125,2.4825,2.4636252,2.4636252,2.4636252,2.4636252,2.43575,2.426625,2.426625,2.426625,2.426625,2.4450002,2.4825,2.473,2.45425,2.473,2.492125,2.492125,2.4825,2.4825,2.5017502,2.5113752,2.52125,2.5310001,2.5310001,2.5310001,2.5310001,2.5310001,2.5410001,2.5410001,2.5310001,2.52125,2.52125,2.551,2.551,2.5310001,2.5113752,0.20925,0.20925,0.20925,0.20937501,0.20912501,0.20887502,0.20887502,0.20875001,0.20850001,0.20750001,0.20750001,0.207375,0.207375,0.20725001,0.20712501,0.20700002,0.20712501,0.20725001,0.20725001,0.20725001,0.207375,0.20750001,0.20775001,0.20787501,0.20787501,0.208,0.208,0.20812501,0.20812501,0.20812501,0.20825002,0.20812501,0.208,0.208,0.20825002,0.20850001,0.20875001,0.20887502,0.20912501,0.20950001,0.209625,0.20975001,0.20975001,0.209625,0.20950001,0.20937501,0.20925,0.20925,0.20925,0.20950001,0.20950001,0.20950001,0.20975001,0.21012501,0.21050002,0.210875,0.21100001,0.21112502,0.21112502,0.21125,0.21137501,0.21137501,0.2055,0.205125,0.205125,0.20187502,0.1985,0.1985,0.1985,0.19837502,0.198125,0.19787501,0.19775,0.19762501,0.19737501,0.197125,0.196875,0.19662501,0.1965,0.19637501,0.19625,0.19612502,0.195875,0.19575001,0.19537501,0.19525,0.19512501,0.19500001,0.194875,0.194875,0.19475001,0.19475001,0.19437501,0.19425,0.19425,0.19412501,0.194,0.194,0.19412501,0.19387501,0.19387501,0.19387501,0.19375001,0.193625,0.193625,0.193625,0.193375,0.19312501,0.193,0.19287501,0.19275,0.19275,0.19275,0.19262502,0.19250001,0.19250001,0.19262502,0.19250001,0.192375,0.192375,0.19250001,0.19250001,0.192375,0.19225001,0.19225001,0.19225001,0.19225001,0.192375,0.19225001,0.19225001,0.19212501,0.19212501,0.19212501,0.19225001,0.192375,0.19250001,0.19250001,0.19250001,0.19262502,0.19275,0.19275,0.19275,0.19275,0.19275,0.19275,0.19275,0.19275,0.19275,0.19275,0.19275,0.19275,0.19287501,0.19287501,0.193,0.19312501,0.193375,0.19350001,0.19350001,0.19375001,0.19375001,0.19375001,0.19387501,0.194,0.19412501,0.19425,0.19425,0.19450001,0.19450001,0.194625,0.19475001,0.19500001,0.19537501,0.19575001,0.195875,0.19600001,0.19612502,0.19625,0.19637501,0.1965,0.1965,0.19675002,0.19700001,0.197125,0.19725001,0.19737501,0.1975,0.19762501,0.19762501,0.19762501,0.19762501,0.19762501,0.19775,0.19775,0.19775,0.19787501,0.19800001,0.19800001,0.19800001,0.198125,0.19800001,0.19800001,0.19800001,0.19787501,0.19787501,0.19787501,0.19787501,0.19787501,0.19787501,0.19800001,0.19787501,0.19787501,0.19787501,0.19787501,0.19800001,0.19800001,0.19787501,0.19787501,0.19787501,0.19787501,0.19787501,0.19800001,0.19800001,0.19800001,0.19775,0.19762501,0.1975,0.19737501,0.19725001,0.197125,0.197125,0.197125,0.19725001,0.19737501,0.1975,0.1975,0.19725001,0.198125,0.19800001,0.19787501,0.19787501,0.19787501,0.19775,0.19775,0.19762501,0.19762501,0.19762501,0.1975,0.1975,0.1975,0.1975,0.19737501,0.19737501,0.197125,0.19700001,0.19700001,0.196875,0.196875,0.196875,0.196875,0.196875,0.19675002,0.19662501,0.19662501,0.19675002,0.19662501,0.19662501,0.1965,0.19637501,0.19625,0.19612502,0.19600001,0.19600001,0.195875,0.19575001,0.195875,0.195875,0.195875,0.19575001,0.195625,0.195625,0.195625,0.195625,0.19550002,0.19525,0.19500001,0.19500001,0.194875,0.19475001,0.194625,0.19450001
nan,nan,nan,nan,nan,nan,nan,nan,nan,nan,nan,nan,nan,nan,nan,nan,nan,2.60225,2.5815,2.5410001,2.5410001,2.551,2.5815,2.591875,2.561125,2.5310001,2.5113752,2.5017502,2.473,2.473,2.4636252,2.4636252,2.45425,2.4636252,2.4636252,2.426625,2.4176252,2.426625,2.4086251,2.399625,2.426625,2.4636252,2.4636252,2.45425,2.473,2.5017502,2.5113752,2.4825,2.492125,2.5113752,2.52125,2.52125,2.5310001,2.5410001,2.5310001,2.5310001,2.5410001,2.5410001,2.5310001,2.52125,2.5113752,2.52125,2.5310001,2.52125,2.5113752,0.21000001,0.20937501,0.20937501,0.20950001,0.20937501,0.20937501,0.20912501,0.20912501,0.209,0.20875001,0.208375,0.20825002,0.20775001,0.20750001,0.207375,0.207375,0.20750001,0.20750001,0.20762502,0.20762502,0.20762502,0.20775001,0.20775001,0.208,0.20812501,0.20812501,0.208,0.20812501,0.20812501,0.20812501,0.20812501,0.20812501,0.20787501,0.20775001,0.20775001,0.20787501,0.20825002,0.208625,0.208625,0.20887502,0.20925,0.20937501,0.20950001,0.20950001,0.20937501,0.20925,0.209,0.209,0.209,0.209,0.20925,0.20937501,0.20937501,0.209625,0.21000001,0.21037501,0.21075001,0.210875,0.21112502,0.21125,0.21137501,0.21137501,0.21137501,nan,nan,nan,0.20012501,0.1985,0.1985,0.1985,0.19837502,0.19800001,0.19775,0.19737501,0.19725001,0.197125,0.196875,0.19662501,0.19637501,0.19625,0.19612502,0.19600001,0.19575001,0.19575001,0.19550002,0.19525,0.19512501,0.19500001,0.194875,0.194875,0.194875,0.194625,0.19450001,0.19437501,0.19412501,0.194,0.19387501,0.19375001,0.19387501,0.19387501,0.19375001,0.193625,0.19350001,0.19350001,0.19350001,0.19350001,0.19350001,0.19325002,0.193,0.19287501,0.19275,0.19275,0.19275,0.19275,0.19250001,0.19225001,0.192375,0.192375,0.19225001,0.19212501,0.19212501,0.19225001,0.19225001,0.19212501,0.192,0.192,0.19212501,0.19212501,0.19225001,0.19225001,0.19212501,0.192,0.192,0.19212501,0.19212501,0.19212501,0.19225001,0.192375,0.192375,0.192375,0.19250001,0.19262502,0.19262502,0.19275,0.19262502,0.19262502,0.19262502,0.19262502,0.19262502,0.19262502,0.19262502,0.19275,0.19275,0.19275,0.19275,0.19287501,0.19312501,0.19325002,0.19325002,0.193375,0.19350001,0.193625,0.19375001,0.19387501,0.194,0.194,0.19425,0.19425,0.19437501,0.19450001,0.194625,0.19475001,0.19512501,0.19537501,0.19575001,0.195875,0.19600001,0.19625,0.19637501,0.19637501,0.1965,0.19675002,0.196875,0.19700001,0.19725001,0.19725001,0.19737501,0.1975,0.1975,0.1975,0.1975,0.1975,0.19762501,0.19762501,0.19762501,0.19775,0.19787501,0.19787501,0.19787501,0.19787501,0.19787501,0.19787501,0.19775,0.19775,0.19775,0.19775,0.19775,0.19775,0.19775,0.19775,0.19775,0.19775,0.19775,0.19775,0.19787501,0.19787501,0.19787501,0.19775,0.19775,0.19775,0.19787501,0.19787501,0.19787501,0.19775,0.19762501,0.1975,0.19737501,0.197125,0.19700001,0.196875,0.196875,0.196875,0.19700001,0.197125,0.19725001,0.19737501,0.1975,0.19787501,0.19787501,0.19775,0.19775,0.19762501,0.19762501,0.19762501,0.1975,0.1975,0.1975,0.19737501,0.19737501,0.19737501,0.19737501,0.19725001,0.197125,0.19700001,0.196875,0.196875,0.19675002,0.19675002,0.19675002,0.19675002,0.19675002,0.19662501,0.1965,0.1965,0.1965,0.1965,0.19637501,0.19637501,0.19625,0.19625,0.19612502,0.195875,0.195875,0.19575001,0.19575001,0.19575001,0.195875,0.195875,0.19575001,0.195625,0.19550002,0.19550002,0.19550002,0.19550002,0.19512501,0.194875,0.19512501,0.19512501,0.194875,0.19450001,0.19450001
nan,nan,nan,nan,nan,nan,nan,nan,nan,nan,nan,nan,nan,nan,nan,nan,nan,2.5410001,2.5410001,2.5113752,2.5310001,2.5410001,2.5815,2.5712502,2.5310001,2.5017502,2.492125,2.4825,2.473,2.4636252,2.4636252,2.45425,2.4450002,2.4636252,2.473,2.43575,2.4176252,2.4176252,2.399625,2.3820002,2.4086251,2.45425,2.4636252,2.4636252,2.4636252,2.492125,2.5017502,2.492125,2.5017502,2.5113752,2.5113752,2.52125,2.5310001,2.5410001,2.5310001,2.5310001,2.5410001,2.5410001,2.5310001,2.5310001,2.52125,2.5310001,2.52125,2.52125,2.5017502,nan,0.209625,0.209625,0.20975001,0.20975001,0.20950001,0.20950001,0.20937501,0.20925,0.209,0.20887502,0.208625,0.20825002,0.20787501,0.20762502,0.20762502,0.20762502,0.20775001,0.20787501,0.20787501,0.20787501,0.208,0.20825002,0.208375,0.208375,0.20825002,0.20825002,0.20825002,0.20825002,0.20812501,0.20812501,0.208,0.20775001,0.20762502,0.20750001,0.20762502,0.20775001,0.20825002,0.208375,0.208625,0.209,0.20925,0.20925,0.20925,0.20912501,0.209,0.20875001,0.20875001,0.208625,0.20887502,0.209,0.20912501,0.20925,0.20937501,0.20987502,0.21025,0.21050002,0.21075001,0.21100001,0.21125,0.2115,0.212125,0.212125,nan,nan,nan,0.20012501,0.19837502,0.19862501,0.19862501,0.19837502,0.19800001,0.1975,0.197125,0.19700001,0.196875,0.19675002,0.1965,0.19625,0.19612502,0.19600001,0.195875,0.195625,0.19550002,0.19537501,0.19525,0.19512501,0.19500001,0.194875,0.19475001,0.19475001,0.194625,0.19437501,0.19425,0.194,0.19387501,0.19375001,0.19350001,0.193625,0.193625,0.19350001,0.193375,0.19325002,0.19312501,0.19312501,0.19325002,0.19325002,0.19312501,0.19287501,0.19275,0.19262502,0.19262502,0.19250001,0.19250001,0.192375,0.19212501,0.19212501,0.192,0.19187501,0.19175,0.19187501,0.192,0.19187501,0.19175,0.19162501,0.19175,0.192,0.19212501,0.19212501,0.19212501,0.192,0.192,0.192,0.192,0.192,0.19212501,0.19212501,0.19212501,0.19225001,0.19225001,0.192375,0.192375,0.19250001,0.19250001,0.192375,0.192375,0.192375,0.192375,0.192375,0.192375,0.19250001,0.19250001,0.19262502,0.19262502,0.19275,0.19287501,0.19287501,0.19312501,0.19312501,0.19325002,0.193375,0.19350001,0.193625,0.19375001,0.19387501,0.19387501,0.19412501,0.19425,0.19425,0.19437501,0.19450001,0.194625,0.194875,0.19512501,0.19550002,0.195625,0.195875,0.19600001,0.19625,0.19637501,0.1965,0.19662501,0.19675002,0.196875,0.19700001,0.197125,0.19737501,0.19737501,0.19737501,0.19737501,0.19737501,0.19737501,0.1975,0.1975,0.1975,0.1975,0.19762501,0.19775,0.19775,0.19775,0.19762501,0.19762501,0.19762501,0.19762501,0.19762501,0.1975,0.1975,0.1975,0.1975,0.19762501,0.19762501,0.19762501,0.19762501,0.19762501,0.19775,0.19775,0.19775,0.19762501,0.1975,0.19762501,0.19762501,0.19762501,0.19762501,0.19762501,0.1975,0.19737501,0.19737501,0.197125,0.196875,0.196875,0.196875,0.19675002,0.19675002,0.196875,0.19700001,0.19700001,0.19725001,0.19762501,0.19775,0.19762501,0.1975,0.1975,0.1975,0.1975,0.1975,0.19737501,0.19725001,0.19725001,0.19725001,0.19725001,0.19725001,0.197125,0.19700001,0.19675002,0.19675002,0.19662501,0.19662501,0.1965,0.1965,0.19662501,0.1965,0.1965,0.19637501,0.19637501,0.19637501,0.19637501,0.19637501,0.19625,0.19612502,0.19600001,0.195875,0.195875,0.19575001,0.19575001,0.195625,0.19575001,0.19575001,0.19575001,0.195625,0.19550002,0.19537501,0.19525,0.19525,0.19512501,0.19475001,0.194625,0.19500001,0.19537501,0.19437501,0.19437501,0.19437501
nan,nan,nan,nan,nan,nan,nan,nan,nan,nan,nan,nan,nan,nan,nan,nan,nan,2.5113752,2.52125,2.492125,2.492125,2.5017502,2.5310001,2.5113752,2.5017502,2.4825,2.473,2.473,2.4636252,2.473,2.473,2.4636252,2.4636252,2.4825,2.4825,2.4450002,2.426625,2.4176252,2.399625,2.3907502,2.4086251,2.4636252,2.473,2.473,2.4825,2.5113752,2.5113752,2.5017502,2.5113752,2.5113752,2.5113752,2.52125,2.5310001,2.5410001,2.5310001,2.5310001,2.5410001,2.5410001,2.5310001,2.5310001,2.52125,2.52125,2.52125,2.5310001,2.5017502,nan,0.21025,0.21012501,0.21012501,0.21012501,0.21000001,0.20987502,0.20975001,0.209625,0.20925,0.209,0.20887502,0.20850001,0.20825002,0.208,0.20787501,0.20787501,0.208,0.208375,0.208375,0.208375,0.208625,0.20875001,0.20875001,0.208625,0.20850001,0.20850001,0.208375,0.20825002,0.208,0.208,0.20787501,0.20762502,0.207375,0.207375,0.207375,0.20762502,0.20787501,0.20787501,0.20787501,0.20712501,0.20712501,0.209,0.209,0.20887502,0.20850001,0.208,0.20812501,0.208375,0.20875001,0.20887502,0.209,0.209,0.20950001,0.21012501,0.21012501,0.21025,0.21050002,0.21075001,0.21100001,0.2115,0.211875,0.212125,nan,nan,nan,0.20025001,0.19862501,0.19875,0.19875,0.19837502,0.19800001,0.19737501,0.19700001,0.19675002,0.19675002,0.1965,0.19637501,0.19625,0.19612502,0.19600001,0.19575001,0.19550002,0.19537501,0.19525,0.19525,0.19500001,0.194875,0.19475001,0.194625,0.194625,0.19450001,0.19437501,0.19425,0.194,0.19375001,0.19350001,0.19350001,0.19350001,0.193375,0.19312501,0.19287501,0.19275,0.19275,0.19287501,0.19312501,0.19312501,0.19287501,0.19275,0.19262502,0.19262502,0.19262502,0.19262502,0.19250001,0.192375,0.192,0.192,0.19187501,0.19175,0.19162501,0.19162501,0.19175,0.19162501,0.19150001,0.19150001,0.19150001,0.19187501,0.19187501,0.19187501,0.19187501,0.19162501,0.19175,0.19175,0.19175,0.19175,0.19175,0.19187501,0.192,0.192,0.19212501,0.19212501,0.19225001,0.19225001,0.19225001,0.19225001,0.19212501,0.19212501,0.19225001,0.19225001,0.19225001,0.19225001,0.19225001,0.192375,0.192375,0.19250001,0.19250001,0.19275,0.19275,0.19275,0.19275,0.193,0.19325002,0.193375,0.19350001,0.193625,0.19375001,0.194,0.194,0.19412501,0.19425,0.19437501,0.19450001,0.19475001,0.19500001,0.19537501,0.19550002,0.195625,0.195875,0.19612502,0.19637501,0.19637501,0.19662501,0.19675002,0.19675002,0.196875,0.19700001,0.197125,0.19725001,0.197125,0.197125,0.19700001,0.19700001,0.197125,0.197125,0.19725001,0.197125,0.19725001,0.1975,0.19762501,0.1975,0.1975,0.1975,0.1975,0.1975,0.1975,0.19737501,0.19737501,0.19737501,0.19737501,0.19737501,0.19737501,0.19737501,0.1975,0.1975,0.19737501,0.19737501,0.19737501,0.19725001,0.19725001,0.19725001,0.19737501,0.1975,0.1975,0.19737501,0.19737501,0.19737501,0.19725001,0.197125,0.196875,0.19675002,0.19675002,0.19662501,0.19675002,0.19675002,0.19675002,0.19675002,0.19700001,0.19737501,0.1975,0.19737501,0.19737501,0.19737501,0.19725001,0.19737501,0.19725001,0.19725001,0.197125,0.197125,0.197125,0.197125,0.197125,0.196875,0.19662501,0.19662501,0.1965,0.1965,0.1965,0.19637501,0.1965,0.1965,0.1965,0.1965,0.19637501,0.19637501,0.19637501,0.19637501,0.19625,0.19612502,0.19600001,0.195875,0.19575001,0.19575001,0.19575001,0.195625,0.195625,0.195625,0.195625,0.195625,0.19537501,0.19525,0.19512501,0.19512501,0.19512501,0.19500001,0.194625,0.19450001,0.19437501,0.19437501,0.19437501,0.19425,0.19425
nan,nan,nan,nan,nan,nan,nan,nan,nan,nan,nan,nan,nan,nan,nan,nan,nan,2.4636252,2.492125,2.4825,2.473,2.5017502,2.52125,2.492125,2.473,2.473,2.473,2.4825,2.4825,2.492125,2.4825,2.473,2.473,2.5017502,2.5113752,2.473,2.45425,2.45425,2.426625,2.4176252,2.43575,2.4825,2.4825,2.473,2.492125,2.5113752,2.5113752,2.5113752,2.5113752,2.52125,2.5113752,2.5113752,2.5310001,2.5410001,2.5410001,2.5310001,2.5410001,2.5310001,2.52125,2.5113752,2.5113752,2.5017502,2.5017502,2.5113752,2.5113752,nan,nan,0.21037501,0.21037501,0.21037501,0.21012501,0.21000001,0.20987502,0.209625,0.20950001,0.20925,0.20925,0.20887502,0.208625,0.20850001,0.20850001,0.20850001,0.20850001,0.208625,0.208625,0.208625,0.20875001,0.209,0.209,0.20887502,0.20875001,0.208625,0.208375,0.20825002,0.20812501,0.20787501,0.20762502,0.207375,0.20725001,0.20712501,0.20725001,0.20725001,0.207375,0.20725001,0.20687501,0.20662501,0.20687501,0.20725001,0.20725001,0.20725001,0.207375,0.20712501,0.20700002,0.207375,0.207375,0.208625,0.20875001,0.20887502,0.209,0.20950001,0.209625,0.20987502,0.21012501,0.21037501,0.21075001,0.21075001,0.21062501,0.21125,nan,nan,nan,0.20025001,0.19887501,0.19887501,0.19887501,0.19862501,0.19737501,0.19725001,0.19700001,0.19675002,0.19662501,0.1965,0.19637501,0.19625,0.19612502,0.19600001,0.19575001,0.19550002,0.19525,0.19525,0.19512501,0.194875,0.194625,0.194625,0.19450001,0.19450001,0.19437501,0.19425,0.194,0.19375001,0.19350001,0.19325002,0.19312501,0.19312501,0.19312501,0.19287501,0.19275,0.19275,0.19275,0.19275,0.193,0.193,0.19287501,0.19275,0.19262502,0.19262502,0.19250001,0.19250001,0.19250001,0.19212501,0.192,0.19187501,0.19187501,0.19175,0.19150001,0.19162501,0.19150001,0.19150001,0.191375,0.19125001,0.19125001,0.191375,0.191375,0.19150001,0.191375,0.191375,0.19150001,0.19150001,0.19150001,0.19150001,0.19150001,0.19175,0.19175,0.19187501,0.19187501,0.192,0.192,0.19212501,0.192,0.192,0.192,0.192,0.192,0.192,0.192,0.192,0.19187501,0.192,0.19225001,0.19225001,0.192375,0.19250001,0.19262502,0.19262502,0.19275,0.19287501,0.19312501,0.19325002,0.193375,0.19350001,0.193625,0.19375001,0.19387501,0.194,0.19425,0.19437501,0.19450001,0.19450001,0.19475001,0.19525,0.19525,0.19550002,0.19575001,0.19612502,0.19625,0.19637501,0.1965,0.1965,0.19662501,0.19662501,0.19675002,0.196875,0.196875,0.19662501,0.19662501,0.19662501,0.19662501,0.19662501,0.19675002,0.19675002,0.19675002,0.196875,0.19725001,0.19737501,0.19737501,0.19725001,0.19725001,0.19725001,0.19737501,0.19725001,0.19725001,0.19725001,0.197125,0.197125,0.197125,0.197125,0.197125,0.19725001,0.197125,0.197125,0.19700001,0.19700001,0.196875,0.196875,0.19700001,0.19700001,0.197125,0.197125,0.197125,0.197125,0.197125,0.19700001,0.196875,0.19662501,0.19662501,0.1965,0.1965,0.19662501,0.19662501,0.19662501,0.19662501,0.196875,0.197125,0.19737501,0.19725001,0.19725001,0.197125,0.197125,0.197125,0.197125,0.19700001,0.196875,0.19700001,0.197125,0.197125,0.19700001,0.19662501,0.1965,0.1965,0.1965,0.1965,0.19637501,0.19637501,0.19637501,0.19637501,0.19637501,0.1965,0.19637501,0.19637501,0.19637501,0.19625,0.19625,0.19612502,0.19600001,0.195875,0.19575001,0.19575001,0.195625,0.195625,0.19550002,0.19550002,0.195625,0.19550002,0.19525,0.19525,0.19512501,0.19512501,0.19525,0.19512501,0.19475001,0.19450001,0.19450001,0.19450001,0.19437501,0.19425,0.19425
nan,nan,nan,nan,nan,nan,nan,nan,nan,nan,nan,nan,nan,nan,nan,nan,nan,2.4450002,2.4636252,2.45425,2.4636252,2.492125,2.5113752,2.473,2.45425,2.45425,2.4636252,2.473,2.4825,2.492125,2.473,2.45425,2.45425,2.492125,2.5310001,2.4825,2.4636252,2.4636252,2.45425,2.4450002,2.4636252,2.4825,2.4825,2.492125,2.5017502,2.52125,2.5310001,2.5310001,2.5410001,2.5410001,2.52125,2.52125,2.5410001,2.5410001,2.551,2.5310001,2.5310001,2.52125,2.5113752,2.492125,2.473,2.473,2.4636252,2.473,2.4636252,nan,nan,nan,nan,nan,0.21037501,0.21025,0.21025,0.21000001,0.209625,0.20950001,0.20937501,0.209,0.20887502,0.20875001,0.20875001,0.20875001,0.20875001,0.20875001,0.20875001,0.20875001,0.20887502,0.20925,0.20925,0.209,0.20887502,0.20875001,0.208375,0.20825002,0.208,0.20775001,0.207375,0.20700002,0.20687501,0.20675,0.20675,0.20687501,0.20700002,0.20687501,0.20662501,0.20662501,0.20687501,0.20700002,0.20712501,0.20700002,0.20700002,0.20675,0.20675,0.207375,0.207375,0.20850001,0.20725001,0.20750001,0.20775001,0.20887502,0.20925,0.20950001,0.20987502,0.21012501,0.21012501,0.21025,0.210875,0.21125,nan,nan,0.19862501,0.19862501,0.19862501,0.19862501,0.19862501,0.1985,0.19737501,0.19737501,0.19700001,0.19675002,0.19662501,0.1965,0.19637501,0.19625,0.19612502,0.19600001,0.195625,0.19537501,0.19525,0.19525,0.19500001,0.19475001,0.19450001,0.19450001,0.19437501,0.19437501,0.19412501,0.19387501,0.19387501,0.193625,0.193375,0.19325002,0.19312501,0.193,0.193,0.19287501,0.19275,0.19275,0.19262502,0.19275,0.19287501,0.193,0.19287501,0.19262502,0.19262502,0.19262502,0.19250001,0.19250001,0.192375,0.19212501,0.19175,0.19162501,0.19175,0.19175,0.19162501,0.19150001,0.19150001,0.19150001,0.191375,0.19125001,0.19125001,0.191375,0.191375,0.19125001,0.19125001,0.191125,0.19125001,0.19125001,0.19125001,0.191125,0.191375,0.19150001,0.19150001,0.19162501,0.19162501,0.19175,0.19187501,0.192,0.192,0.19187501,0.19175,0.19175,0.19175,0.19187501,0.19175,0.19175,0.19175,0.19187501,0.192,0.19212501,0.19225001,0.19225001,0.192375,0.192375,0.19250001,0.19275,0.19287501,0.193,0.19312501,0.19325002,0.19350001,0.193625,0.19375001,0.19387501,0.194,0.19425,0.19437501,0.19437501,0.194625,0.19512501,0.19525,0.19537501,0.19575001,0.19612502,0.19625,0.19625,0.19637501,0.19637501,0.19637501,0.19637501,0.1965,0.1965,0.19637501,0.19637501,0.19637501,0.19637501,0.19637501,0.19637501,0.19637501,0.1965,0.1965,0.19662501,0.19700001,0.19725001,0.19725001,0.197125,0.19700001,0.197125,0.197125,0.197125,0.197125,0.19700001,0.19700001,0.196875,0.196875,0.196875,0.196875,0.19700001,0.196875,0.19675002,0.19675002,0.19662501,0.19662501,0.19662501,0.19675002,0.19675002,0.19675002,0.196875,0.196875,0.196875,0.196875,0.196875,0.19662501,0.1965,0.1965,0.1965,0.1965,0.19662501,0.19662501,0.19662501,0.19662501,0.19675002,0.19700001,0.197125,0.19700001,0.196875,0.196875,0.196875,0.196875,0.19675002,0.19662501,0.19662501,0.19675002,0.19675002,0.196875,0.19675002,0.1965,0.19637501,0.19637501,0.19637501,0.19637501,0.19637501,0.19637501,0.19637501,0.19637501,0.19637501,0.19637501,0.19637501,0.19625,0.19612502,0.19612502,0.19612502,0.19600001,0.195875,0.195875,0.19575001,0.195625,0.195625,0.195625,0.19550002,0.19550002,0.195625,0.19550002,0.19525,0.19512501,0.19500001,0.19512501,0.19525,0.19525,0.194875,0.19450001,0.19450001,0.19450001,0.19450001,0.19437501,0.19425
nan,nan,nan,nan,nan,nan,nan,nan,nan,nan,nan,nan,nan,nan,nan,nan,nan,2.4825,2.473,2.4636252,2.45425,2.473,2.4825,2.45425,2.4450002,2.43575,2.4450002,2.4636252,2.4636252,2.4825,2.473,2.4450002,2.45425,2.5017502,2.5310001,2.4636252,2.4636252,2.473,2.473,2.473,2.4825,2.492125,2.5017502,2.5017502,2.52125,2.5310001,2.551,2.561125,2.561125,2.551,2.5410001,2.5410001,2.551,2.561125,2.561125,2.5410001,2.5310001,2.52125,2.492125,2.4825,2.4825,2.473,2.4636252,2.473,2.4636252,nan,nan,nan,nan,nan,nan,0.20987502,0.20987502,0.20975001,0.20950001,0.20950001,0.20950001,0.20912501,0.209,0.20887502,0.209,0.20887502,0.20887502,0.20875001,0.20875001,0.208625,0.20875001,0.209,0.209,0.20887502,0.20875001,0.208625,0.208375,0.20825002,0.20787501,0.20750001,0.20700002,0.20675,0.20662501,0.20650001,0.206375,0.20650001,0.20662501,0.206375,0.206375,0.206375,0.206375,0.20662501,0.20662501,0.20662501,0.20625001,0.20625001,0.206125,0.20600002,0.206125,0.20700002,0.20712501,0.20725001,0.207375,0.207375,0.20875001,0.209,0.20950001,0.209625,0.20950001,0.20925,0.21012501,0.21062501,0.21062501,nan,0.1985,0.1985,0.1985,0.1985,0.19837502,0.19825001,0.19787501,0.19737501,0.196875,0.19675002,0.1965,0.19637501,0.19625,0.19612502,0.19600001,0.19575001,0.19550002,0.19537501,0.19525,0.19512501,0.19500001,0.194625,0.19437501,0.19425,0.19425,0.19412501,0.19387501,0.19375001,0.193625,0.19350001,0.193375,0.19312501,0.193,0.193,0.193,0.19275,0.19275,0.19262502,0.19250001,0.19262502,0.19275,0.19287501,0.19275,0.19262502,0.192375,0.192375,0.192375,0.19225001,0.19225001,0.19212501,0.19187501,0.19175,0.19162501,0.19175,0.19175,0.19175,0.19175,0.19150001,0.191375,0.19125001,0.19125001,0.19125001,0.19125001,0.191125,0.19100001,0.19100001,0.19100001,0.191125,0.191125,0.191125,0.191375,0.191375,0.191375,0.19150001,0.19150001,0.19162501,0.19162501,0.19175,0.19162501,0.19150001,0.19150001,0.19162501,0.19150001,0.19162501,0.19150001,0.19150001,0.19150001,0.19162501,0.19187501,0.192,0.192,0.19212501,0.19212501,0.19225001,0.192375,0.19262502,0.19275,0.19287501,0.19287501,0.193,0.193375,0.19350001,0.193625,0.19375001,0.194,0.19425,0.19425,0.19437501,0.194625,0.19512501,0.19525,0.19537501,0.195625,0.19600001,0.19600001,0.19612502,0.19612502,0.19625,0.19625,0.19625,0.19625,0.19625,0.19612502,0.19612502,0.19612502,0.19612502,0.19612502,0.19612502,0.19625,0.19637501,0.19637501,0.1965,0.19662501,0.196875,0.196875,0.196875,0.19675002,0.196875,0.196875,0.196875,0.196875,0.19675002,0.19675002,0.196875,0.196875,0.19675002,0.19675002,0.196875,0.19675002,0.19662501,0.1965,0.1965,0.1965,0.1965,0.1965,0.1965,0.19662501,0.19662501,0.19662501,0.19662501,0.19662501,0.19662501,0.1965,0.1965,0.1965,0.1965,0.1965,0.1965,0.19662501,0.19662501,0.1965,0.19662501,0.19662501,0.19662501,0.19675002,0.19662501,0.19637501,0.1965,0.19637501,0.19637501,0.19637501,0.19637501,0.1965,0.1965,0.1965,0.1965,0.19637501,0.19637501,0.19637501,0.19637501,0.19637501,0.19625,0.19625,0.19625,0.19625,0.19625,0.19637501,0.19625,0.19625,0.19600001,0.19600001,0.19600001,0.195875,0.19575001,0.19575001,0.195625,0.195625,0.195625,0.19550002,0.19550002,0.19550002,0.19550002,0.19537501,0.19512501,0.194875,0.194875,0.19500001,0.19512501,0.19512501,0.194625,0.19437501,0.19437501,0.19450001,0.19450001,0.19437501,0.19425
nan,nan,nan,nan,nan,nan,nan,nan,nan,nan,nan,nan,nan,nan,nan,nan,nan,2.4825,2.4825,2.4636252,2.43575,2.43575,2.45425,2.45425,2.4450002,2.4450002,2.45425,2.4825,2.4636252,2.492125,2.492125,2.4825,2.5017502,2.551,2.551,2.43575,2.5017502,2.5113752,2.5113752,2.5113752,2.5113752,2.5113752,2.5113752,2.5113752,2.52125,2.5410001,2.561125,2.5815,2.5815,2.561125,2.551,2.5410001,2.561125,2.5712502,2.5712502,2.5410001,2.5310001,2.52125,2.5113752,2.5113752,2.5017502,2.492125,2.492125,2.492125,2.5017502,nan,nan,nan,nan,nan,nan,0.20987502,0.21000001,0.21000001,0.21000001,0.21000001,0.209625,0.20925,0.20937501,nan,nan,nan,nan,0.20875001,0.208625,0.20850001,0.208625,0.20887502,0.20887502,0.20875001,0.208625,0.20825002,0.20775001,0.20762502,0.207375,0.20712501,0.20675,0.20650001,0.20625001,0.20625001,0.20600002,0.20562501,0.2055,0.20537502,0.20537502,0.20562501,0.20562501,0.20537502,0.2055,0.2055,0.2055,0.20562501,0.20575,0.2055,0.20537502,0.20587501,0.20600002,0.206375,0.20700002,0.20750001,0.20850001,0.20887502,0.20912501,0.20925,0.209,0.20887502,0.21025,0.21062501,0.21075001,0.21112502,0.19825001,0.19837502,0.19837502,0.19825001,0.19825001,0.198125,0.19787501,0.19737501,0.196875,0.19675002,0.1965,0.19637501,0.19612502,0.19600001,0.195875,0.195625,0.19550002,0.19525,0.19512501,0.19500001,0.194875,0.19450001,0.19425,0.19425,0.19412501,0.194,0.19375001,0.19350001,0.19350001,0.193375,0.19325002,0.193,0.193,0.193,0.193,0.19275,0.19262502,0.19250001,0.19225001,0.19225001,0.192375,0.19250001,0.192375,0.19225001,0.19212501,0.19212501,0.192,0.192,0.19187501,0.19187501,0.19162501,0.19150001,0.19150001,0.19150001,0.19162501,0.19175,0.19175,0.19162501,0.19150001,0.191375,0.19125001,0.19125001,0.191125,0.19100001,0.19100001,0.19087501,0.19087501,0.19087501,0.19087501,0.19087501,0.19100001,0.19100001,0.19125001,0.191375,0.191375,0.19150001,0.19150001,0.19150001,0.19150001,0.191375,0.191375,0.191375,0.191375,0.19125001,0.19125001,0.191125,0.191375,0.19150001,0.19162501,0.19175,0.19175,0.19187501,0.192,0.192,0.19225001,0.19250001,0.19262502,0.19275,0.19275,0.19287501,0.19312501,0.193375,0.19350001,0.19350001,0.19375001,0.194,0.194,0.19387501,0.19375001,0.19512501,0.19512501,0.19525,0.19550002,0.195625,0.19575001,0.195875,0.195875,0.19600001,0.19600001,0.19612502,0.19612502,0.19600001,0.19600001,0.195875,0.19600001,0.195875,0.19600001,0.19600001,0.19612502,0.19612502,0.19625,0.19637501,0.19637501,0.1965,0.19662501,0.19662501,0.1965,0.19662501,0.1965,0.19662501,0.19675002,0.19662501,0.19662501,0.19675002,0.19675002,0.19662501,0.19662501,0.19662501,0.1965,0.19637501,0.19637501,0.19637501,0.19637501,0.19637501,0.19637501,0.19637501,0.19637501,0.19637501,0.19637501,0.19637501,0.19637501,0.19637501,0.19637501,0.19637501,0.19637501,0.19637501,0.19637501,0.19637501,0.19637501,0.19637501,0.19637501,0.19625,0.19612502,0.19625,0.19637501,0.19637501,0.19625,0.19625,0.19625,0.19625,0.19625,0.19625,0.19637501,0.19637501,0.19637501,0.19637501,0.19625,0.19612502,0.19612502,0.19625,0.19612502,0.19612502,0.19612502,0.19600001,0.19600001,0.19612502,0.19612502,0.19612502,0.19600001,0.19575001,0.195625,0.195625,0.195625,0.195625,0.19550002,0.19550002,0.19550002,0.19537501,0.19537501,0.19537501,0.19537501,0.19537501,0.19525,0.19500001,0.19475001,0.19475001,0.19475001,0.194875,0.194875,0.19450001,0.19425,0.19425,0.19437501,0.19437501,0.19425,0.19425
nan,nan,nan,nan,nan,nan,nan,nan,nan,nan,nan,nan,nan,nan,nan,nan,2.5017502,2.492125,2.492125,2.4825,2.4636252,2.4636252,2.4450002,2.5017502,2.492125,2.4825,2.4825,2.5113752,2.5017502,2.5113752,2.5113752,2.5017502,2.5310001,2.5712502,2.61275,2.5113752,2.551,2.5310001,2.5410001,2.5310001,2.5310001,2.5410001,2.5310001,2.5310001,2.5410001,2.561125,2.5815,2.5815,2.591875,2.561125,2.551,2.551,2.551,2.561125,2.561125,2.52125,2.5113752,2.5017502,2.5113752,2.52125,2.5310001,2.52125,2.5113752,2.5017502,2.5017502,nan,nan,nan,nan,nan,nan,nan,nan,nan,nan,nan,nan,nan,nan,nan,nan,nan,nan,0.20875001,0.208625,0.208625,0.208625,0.20887502,0.20887502,0.20875001,0.208625,0.208,0.20762502,0.207375,0.20712501,0.20675,0.206375,0.20625001,0.20600002,0.20575,0.20562501,0.2055,0.20537502,0.20525001,0.20525001,0.20525001,0.20537502,0.20525001,0.20537502,0.20525001,0.20537502,0.20537502,0.20525001,0.20500001,0.20475002,0.20475002,0.20500001,0.20537502,0.20687501,0.20725001,0.20825002,0.20850001,0.209,0.209,0.20887502,0.20875001,0.20925,0.21050002,0.210875,0.21112502,0.19825001,0.19825001,0.19837502,0.19837502,0.19825001,0.198125,0.19775,0.19725001,0.19700001,0.19675002,0.1965,0.19637501,0.19612502,0.195875,0.19575001,0.195625,0.19537501,0.19512501,0.19500001,0.194875,0.19475001,0.19450001,0.19425,0.19412501,0.194,0.19375001,0.19350001,0.193375,0.193375,0.19325002,0.193,0.19287501,0.19287501,0.19287501,0.19287501,0.19275,0.19250001,0.192375,0.192375,0.19225001,0.19225001,0.192375,0.19225001,0.19212501,0.192,0.192,0.19175,0.19162501,0.19162501,0.19150001,0.19150001,0.19150001,0.19150001,0.19150001,0.19150001,0.19162501,0.19162501,0.19150001,0.191375,0.19125001,0.191125,0.19100001,0.19087501,0.19087501,0.19087501,0.19087501,0.19087501,0.19087501,0.19087501,0.19087501,0.19100001,0.19100001,0.19100001,0.19125001,0.19125001,0.19125001,0.191125,0.19100001,0.19100001,0.19100001,0.19100001,0.19100001,0.19100001,0.19100001,0.19100001,0.19100001,0.191125,0.19125001,0.19150001,0.19150001,0.19162501,0.19187501,0.192,0.192,0.19225001,0.192375,0.19262502,0.19275,0.19275,0.19287501,0.193,0.19312501,0.19312501,0.19325002,0.19350001,0.19350001,0.193625,0.193625,0.19375001,0.194625,0.19475001,0.19500001,0.19525,0.19537501,0.19550002,0.19575001,0.19575001,0.19575001,0.195875,0.195875,0.195875,0.19575001,0.19575001,0.19575001,0.195875,0.195875,0.195875,0.195875,0.19600001,0.19612502,0.19612502,0.19625,0.19625,0.19625,0.19637501,0.19637501,0.19637501,0.19637501,0.19637501,0.19637501,0.1965,0.1965,0.1965,0.19662501,0.1965,0.1965,0.1965,0.1965,0.19637501,0.19625,0.19625,0.19625,0.19625,0.19625,0.19625,0.19625,0.19625,0.19625,0.19625,0.19625,0.19625,0.19625,0.19625,0.19625,0.19625,0.19625,0.19625,0.19625,0.19612502,0.19612502,0.19612502,0.19600001,0.19600001,0.19600001,0.19612502,0.19612502,0.19612502,0.19612502,0.19612502,0.19600001,0.19612502,0.19625,0.19637501,0.19637501,0.19637501,0.19637501,0.19625,0.19612502,0.19600001,0.19612502,0.19600001,0.195875,0.195875,0.19575001,0.195625,0.19575001,0.195875,0.195875,0.19575001,0.19550002,0.19537501,0.19537501,0.19537501,0.19537501,0.19537501,0.19525,0.19525,0.19525,0.19525,0.19525,0.19525,0.19525,0.19512501,0.194875,0.194625,0.194625,0.194625,0.19475001,0.194625,0.19450001,0.19425,0.19425,0.19425,0.19425,0.19425,0.19412501
nan,nan,nan,nan,nan,nan,nan,nan,nan,nan,nan,nan,nan,nan,nan,nan,2.5017502,2.492125,2.5017502,2.5113752,2.5017502,2.5113752,2.5017502,2.5310001,2.5017502,2.492125,2.492125,2.5113752,2.5017502,2.52125,2.5017502,2.473,2.492125,2.5113752,2.61275,2.5815,2.551,2.551,2.551,2.551,2.551,2.561125,2.561125,2.551,2.551,2.5815,2.5815,2.591875,2.61275,2.5712502,2.551,2.5410001,2.551,2.551,2.561125,2.52125,2.5017502,2.5017502,2.5113752,2.5310001,2.551,2.5310001,2.52125,2.5113752,2.5017502,2.551,2.60225,nan,nan,nan,nan,nan,nan,nan,nan,nan,nan,nan,nan,nan,nan,nan,nan,nan,0.208625,0.208625,0.20875001,0.20887502,0.20887502,0.20875001,0.20850001,0.20812501,0.20762502,0.207375,0.20700002,0.206375,0.20600002,0.20575,0.20525001,0.205125,0.20500001,0.20475002,0.20475002,0.20475002,0.204875,0.204875,0.204875,0.20475002,0.204875,0.204875,0.204875,0.20500001,0.20500001,0.204875,0.20475002,0.204875,0.20525001,0.20525001,0.20675,0.20687501,0.20762502,0.20762502,0.20850001,0.20850001,0.208375,0.20875001,0.20937501,0.20937501,0.20950001,0.209625,0.19825001,0.19825001,0.19837502,0.19837502,0.19825001,0.19800001,0.196875,0.19700001,0.19675002,0.19662501,0.1965,0.19637501,0.19612502,0.195875,0.195625,0.19537501,0.19525,0.19512501,0.194875,0.19475001,0.194625,0.19437501,0.19425,0.194,0.19387501,0.193625,0.19350001,0.19325002,0.19312501,0.19312501,0.19287501,0.19275,0.19262502,0.19275,0.19275,0.19250001,0.192375,0.19225001,0.19212501,0.19212501,0.19212501,0.19212501,0.192,0.192,0.19187501,0.19175,0.19162501,0.19150001,0.19150001,0.19150001,0.19150001,0.19150001,0.191375,0.191375,0.191375,0.19150001,0.19150001,0.191375,0.19125001,0.19100001,0.19087501,0.19087501,0.19075,0.19075,0.19062501,0.19075,0.19087501,0.19087501,0.19087501,0.19075,0.19087501,0.19087501,0.19087501,0.19087501,0.19087501,0.19087501,0.19087501,0.19087501,0.19087501,0.19087501,0.19087501,0.19087501,0.19087501,0.19087501,0.19087501,0.19087501,0.19100001,0.19125001,0.191375,0.19125001,0.19150001,0.19162501,0.19187501,0.192,0.19225001,0.192375,0.19250001,0.19275,0.19275,0.19275,0.19287501,0.193,0.193,0.19312501,0.19325002,0.193375,0.19350001,0.19350001,0.19375001,0.19425,0.194625,0.19475001,0.19500001,0.19512501,0.19525,0.19550002,0.19550002,0.19550002,0.19550002,0.19550002,0.19550002,0.19537501,0.19525,0.19537501,0.195625,0.195625,0.19575001,0.19575001,0.195875,0.19600001,0.19600001,0.19600001,0.19600001,0.19600001,0.19600001,0.19612502,0.19612502,0.19612502,0.19612502,0.19625,0.19637501,0.19637501,0.19637501,0.19637501,0.19625,0.19625,0.19625,0.19625,0.19600001,0.19600001,0.19600001,0.19600001,0.19600001,0.195875,0.195875,0.195875,0.19600001,0.19600001,0.19600001,0.19600001,0.19600001,0.19600001,0.19612502,0.19612502,0.19612502,0.19612502,0.19600001,0.19600001,0.19600001,0.19600001,0.19600001,0.195875,0.195875,0.195875,0.195875,0.195875,0.195875,0.19600001,0.19600001,0.19600001,0.19600001,0.19612502,0.19625,0.19625,0.19625,0.19625,0.19612502,0.195875,0.19575001,0.19575001,0.195875,0.195625,0.19550002,0.19537501,0.19525,0.19537501,0.195625,0.195625,0.195625,0.19525,0.19525,0.19525,0.19525,0.19525,0.19525,0.19525,0.19525,0.19512501,0.19512501,0.19512501,0.19512501,0.19512501,0.19500001,0.19475001,0.19450001,0.19450001,0.19450001,0.19450001,0.19450001,0.19437501,0.19425,0.19412501,0.19425,0.19425,0.19412501,0.194
nan,nan,nan,nan,nan,nan,nan,nan,nan,nan,nan,nan,nan,nan,nan,nan,2.5113752,2.4825,2.5113752,2.5310001,2.5113752,2.5017502,2.5310001,2.5113752,2.473,2.4636252,2.4636252,2.492125,2.492125,2.5017502,2.4825,2.4636252,2.473,2.473,2.61275,2.5815,2.551,2.551,2.561125,2.561125,2.5712502,2.5815,2.5712502,2.5712502,2.5712502,2.5815,2.60225,2.591875,2.60225,2.5712502,2.5410001,2.5410001,2.551,2.561125,2.561125,2.52125,2.5113752,2.5017502,2.52125,2.5310001,2.551,2.5410001,2.5410001,2.5310001,2.551,2.5712502,2.60225,nan,nan,nan,nan,nan,nan,nan,nan,nan,nan,nan,nan,nan,nan,nan,nan,nan,nan,nan,0.20937501,0.20937501,0.20937501,0.20912501,0.20875001,0.20762502,0.207375,0.20700002,0.20675,0.20525001,0.20525001,0.20500001,0.20475002,0.20475002,0.20462501,0.20462501,0.2045,0.20462501,0.20462501,0.20462501,0.20475002,0.20475002,0.20475002,0.20475002,0.204875,0.204875,0.204875,0.20475002,0.20475002,0.204875,0.205125,0.20525001,0.20537502,0.2055,0.20750001,0.20750001,0.207375,0.20750001,0.208,0.208,0.209,0.20937501,0.20950001,0.20950001,0.20937501,0.19787501,0.19825001,0.19825001,0.19800001,0.19775,0.19737501,0.196875,0.19675002,0.19675002,0.19662501,0.19637501,0.19625,0.19600001,0.195625,0.19550002,0.19525,0.19500001,0.194875,0.19475001,0.194625,0.19437501,0.19412501,0.19387501,0.193625,0.19350001,0.193375,0.19325002,0.19312501,0.193,0.19287501,0.19262502,0.19250001,0.19250001,0.19250001,0.192375,0.19225001,0.19225001,0.19212501,0.192,0.192,0.19212501,0.19212501,0.192,0.19175,0.19162501,0.19150001,0.19150001,0.19150001,0.19150001,0.19150001,0.191375,0.191375,0.191375,0.191375,0.191375,0.191375,0.19125001,0.191125,0.19087501,0.19087501,0.19075,0.1905,0.19037502,0.19037502,0.19062501,0.19075,0.19075,0.19075,0.19075,0.19075,0.19075,0.19075,0.19075,0.19075,0.19075,0.19075,0.19075,0.19087501,0.19075,0.19075,0.19087501,0.19087501,0.19087501,0.19087501,0.19087501,0.19087501,0.19100001,0.191125,0.191125,0.19125001,0.19150001,0.19162501,0.19175,0.192,0.19225001,0.192375,0.19250001,0.19250001,0.19262502,0.19275,0.19287501,0.19287501,0.193,0.193,0.19325002,0.193375,0.193375,0.19350001,0.194,0.19437501,0.194625,0.19475001,0.19500001,0.19512501,0.19525,0.19525,0.19525,0.19525,0.19525,0.19525,0.19512501,0.19500001,0.19512501,0.19512501,0.19525,0.19525,0.19537501,0.195625,0.19575001,0.195875,0.19575001,0.19575001,0.195625,0.195625,0.195875,0.195875,0.195875,0.195875,0.19600001,0.19612502,0.19612502,0.19612502,0.19600001,0.195875,0.195875,0.195875,0.195875,0.19575001,0.19575001,0.19575001,0.19575001,0.19575001,0.195625,0.195625,0.195625,0.19575001,0.19575001,0.19575001,0.195875,0.195875,0.195875,0.19600001,0.19600001,0.195875,0.195875,0.19575001,0.19575001,0.19575001,0.19575001,0.19575001,0.195625,0.195625,0.19550002,0.19550002,0.195625,0.195625,0.19575001,0.195875,0.195875,0.195875,0.19600001,0.19612502,0.19612502,0.19612502,0.19600001,0.19575001,0.195625,0.19550002,0.19550002,0.19550002,0.19537501,0.19525,0.19512501,0.19512501,0.19525,0.19537501,0.19550002,0.19537501,0.19525,0.19512501,0.19512501,0.19512501,0.19525,0.19500001,0.19512501,0.19500001,0.194875,0.194875,0.194875,0.19475001,0.194875,0.19475001,0.19450001,0.19437501,0.19437501,0.19437501,0.19437501,0.19425,0.19425,0.19425,0.19412501,0.19412501,0.19412501,0.19412501,0.19387501
nan,nan,nan,nan,nan,nan,nan,nan,nan,nan,nan,nan,nan,nan,nan,nan,2.52125,2.5017502,2.5113752,2.5310001,2.52125,2.5017502,2.5310001,2.5017502,2.473,2.4636252,2.473,2.5017502,2.5017502,2.5113752,2.492125,2.473,2.5017502,2.5310001,2.60225,2.561125,2.551,2.561125,2.5815,2.5815,2.5815,2.591875,2.591875,2.5815,2.591875,2.60225,2.61275,2.591875,2.591875,2.5712502,2.551,2.5410001,2.551,2.551,2.551,2.5017502,2.5113752,2.5113752,2.52125,2.5310001,2.551,2.5410001,2.5410001,2.5410001,2.561125,2.591875,2.61275,nan,nan,nan,nan,nan,nan,nan,nan,nan,nan,nan,nan,nan,nan,nan,nan,nan,nan,nan,nan,nan,0.20875001,0.20887502,0.20687501,0.20700002,0.20700002,0.20675,0.20662501,0.20525001,0.205125,0.20500001,0.204875,0.20475002,0.20462501,0.2045,0.20437501,0.2045,0.2045,0.20462501,0.2045,0.2045,0.2045,0.20462501,0.20462501,0.20462501,0.20462501,0.2045,0.2045,0.20462501,0.20475002,0.204875,0.205125,0.2055,0.20562501,0.206375,0.20662501,0.20687501,0.20687501,0.207375,0.20787501,0.20887502,0.209,0.209,0.20887502,0.19800001,0.19737501,0.19737501,0.19762501,0.19762501,0.19737501,0.19700001,0.196875,0.19675002,0.19662501,0.1965,0.19625,0.19600001,0.195625,0.19537501,0.19525,0.19500001,0.194875,0.194625,0.19450001,0.19425,0.194,0.193625,0.19350001,0.193375,0.19312501,0.193,0.193,0.19287501,0.19275,0.19262502,0.19250001,0.19250001,0.192375,0.19225001,0.19225001,0.19225001,0.19212501,0.192,0.192,0.192,0.192,0.19187501,0.19175,0.19162501,0.19150001,0.19150001,0.191375,0.191375,0.191375,0.191375,0.19125001,0.19125001,0.19125001,0.19125001,0.191375,0.19125001,0.19100001,0.19087501,0.19075,0.19062501,0.19037502,0.19025001,0.19025001,0.19037502,0.1905,0.1905,0.19062501,0.1905,0.1905,0.1905,0.19062501,0.19062501,0.1905,0.19037502,0.19037502,0.19037502,0.19037502,0.1905,0.1905,0.1905,0.1905,0.1905,0.19062501,0.19062501,0.19075,0.19087501,0.19100001,0.191125,0.19125001,0.19125001,0.19150001,0.19162501,0.19187501,0.19212501,0.19225001,0.192375,0.192375,0.19250001,0.19262502,0.19275,0.19275,0.19275,0.19275,0.19287501,0.19312501,0.19312501,0.193375,0.19387501,0.19425,0.19437501,0.19450001,0.19475001,0.19475001,0.194875,0.194875,0.19500001,0.194875,0.194875,0.194875,0.19475001,0.19475001,0.19475001,0.19475001,0.19500001,0.19500001,0.19525,0.19537501,0.19550002,0.195625,0.195625,0.19550002,0.19525,0.19537501,0.195625,0.195625,0.195625,0.195625,0.19575001,0.195875,0.195875,0.19575001,0.195625,0.19550002,0.19550002,0.195625,0.195625,0.195625,0.195625,0.195625,0.195625,0.195625,0.19550002,0.195625,0.195625,0.195625,0.195625,0.195625,0.195625,0.195625,0.195625,0.19575001,0.19575001,0.19475001,0.19475001,0.19525,0.19525,0.19550002,0.19550002,0.19525,0.19550002,0.19537501,0.19537501,0.19537501,0.19550002,0.19550002,0.19550002,0.195625,0.19575001,0.195875,0.19600001,0.19612502,0.19600001,0.19600001,0.19575001,0.19550002,0.19525,0.19525,0.19525,0.19525,0.19512501,0.194875,0.194875,0.19475001,0.194875,0.19525,0.19525,0.19525,0.19500001,0.194875,0.194875,0.194875,0.194875,0.194875,0.194875,0.19475001,0.19475001,0.194625,0.194625,0.194625,0.19475001,0.19450001,0.19437501,0.19425,0.19425,0.19425,0.19425,0.19425,0.19412501,0.19412501,0.194,0.194,0.19387501,0.19287501,0.19287501
