0.30395508,0.3046875,0.3088379,0.3083496,0.31030273,0.31103516,0.31176758,0.31176758,0.31323242,0.31420898,0.31518555,0.31591797,0.31689453,0.3173828,0.31811523,0.31860352,0.32006836,0.32055664,0.32177734,0.32250977,0.32373047,0.3244629,0.3256836,0.32666016,0.32763672,0.32885742,0.33007812,0.33154297,0.3330078,0.33398438,0.33520508,0.33666992,0.33789062,0.3395996,0.3408203,0.34228516,0.34375,0.3449707,0.34643555,0.34814453,0.34960938,0.35131836,0.3527832,0.3544922,0.35620117,0.35766602,0.359375,0.36108398,0.36279297,0.36450195,0.36621094,0.36791992,0.36987305,0.37158203,0.37329102,0.375,0.37670898,0.37841797,0.3803711,0.38208008,0.38378906,0.3857422,0.38745117,0.3894043,0.39135742,0.39331055,0.39526367,0.3972168,0.39941406,0.4013672,0.4033203,0.40551758,0.4074707,0.40942383,0.41137695,0.41333008,0.41503906,0.41674805,0.41870117,0.42041016,0.42138672,0.421875,0.42211914,0.42138672,0.41967773,0.4182129,0.41723633,0.41723633,0.41674805,0.4165039,0.41601562,0.41625977,0.4165039,0.4169922,0.4177246,0.41870117,0.41992188,0.42211914,0.42382812,0.42626953,0.42944336,0.4321289,0.43530273,0.43920898,0.44262695,0.4465332,0.45092773,0.4572754,0.46557617,0.4741211,0.4807129,0.4975586,0.51464844,0.52001953,0.5239258,0.52685547,0.5288086,0.53125,0.5341797,0.53759766,0.54052734,0.5439453,0.54785156,0.5517578,0.5551758,0.55908203,0.5629883,0.56640625,0.5698242,0.57373047,0.5776367,0.58154297,0.5859375,0.58984375,0.5942383,0.59814453,0.60253906,0.6064453,0.61083984,0.6152344,0.6201172,0.625,0.62939453,0.63427734,0.6386719,0.64453125,0.64941406,0.65478516,0.66064453,0.6660156,0.671875,0.6777344,0.68310547,0.68896484,0.6948242,0.7011719,0.70751953,0.7138672,0.72021484,0.7265625,0.73339844,0.7402344,0.7470703,0.75390625,0.7607422,0.7685547,0.7758789,0.7836914,0.7915039,0.7993164,0.8076172,0.81591797,0.82470703,0.8334961,0.84228516,0.8520508,0.86083984,0.87109375,0.8808594,0.890625,0.9003906,0.91064453,0.9213867,0.9321289,0.9428711,0.95410156,0.9658203,0.9770508,0.98779297,1.0009766,1.0136719,1.0263672,1.0400391,1.0537109,1.0673828,1.0820312,1.0957031,1.1103516,1.125,1.140625,1.15625,1.1738281,1.1894531,1.2050781,1.2207031,1.2382812,1.2568359,1.2753906,1.2939453,1.3134766,1.3330078,1.3535156,1.375,1.4003906,1.4199219,1.4384766,1.4501953,1.4560547,1.4785156,1.4726562,1.4628906,1.3916016,0.95654297,0.94677734,0.9399414,0.9350586,0.93066406,0.9277344,0.9243164,0.92089844,0.91748047,0.9140625,0.9116211,0.9091797,0.9057617,0.90234375,0.8989258,0.8959961,0.8925781,0.88916016,0.8857422,0.88378906,0.8798828,0.8779297,0.8745117,0.8720703,0.8696289,0.86621094,0.86279297,0.86083984,0.85498047,0.8535156,0.8491211,0.85498047,0.8408203
0.30444336,0.3046875,0.3088379,0.3083496,0.3100586,0.31103516,0.31152344,0.31176758,0.31298828,0.31396484,0.3149414,0.31591797,0.3166504,0.3173828,0.31835938,0.31860352,0.31982422,0.3203125,0.3215332,0.32250977,0.32373047,0.3244629,0.32543945,0.32666016,0.32788086,0.32885742,0.33007812,0.33154297,0.3330078,0.33422852,0.33544922,0.33666992,0.33789062,0.33935547,0.3408203,0.34228516,0.34375,0.34521484,0.34643555,0.34838867,0.34960938,0.35131836,0.3527832,0.3544922,0.35620117,0.35791016,0.359375,0.36108398,0.36279297,0.36450195,0.36645508,0.36791992,0.36987305,0.37158203,0.37329102,0.375,0.37670898,0.3786621,0.3803711,0.38208008,0.38378906,0.3857422,0.38745117,0.3894043,0.39111328,0.39331055,0.39526367,0.39697266,0.39916992,0.4013672,0.4033203,0.40527344,0.40722656,0.4091797,0.4111328,0.41308594,0.41503906,0.41674805,0.41845703,0.42016602,0.42138672,0.42211914,0.42236328,0.42211914,0.4206543,0.41870117,0.41748047,0.41748047,0.4169922,0.4169922,0.4165039,0.41674805,0.41723633,0.4177246,0.41870117,0.41967773,0.42089844,0.42333984,0.42504883,0.42749023,0.4309082,0.43359375,0.43652344,0.4404297,0.4440918,0.4477539,0.45214844,0.4584961,0.4663086,0.47802734,0.4880371,0.50390625,0.5161133,0.52001953,0.5239258,0.5263672,0.5283203,0.53125,0.5336914,0.5371094,0.54052734,0.5439453,0.54785156,0.55126953,0.5551758,0.55859375,0.5625,0.56591797,0.5698242,0.57373047,0.5776367,0.58154297,0.5854492,0.58984375,0.59375,0.59814453,0.6020508,0.6064453,0.61035156,0.6152344,0.6196289,0.6245117,0.62890625,0.63427734,0.63916016,0.64453125,0.64990234,0.65527344,0.66064453,0.6660156,0.671875,0.6777344,0.68310547,0.68896484,0.6948242,0.7011719,0.70703125,0.7138672,0.72021484,0.7270508,0.73339844,0.7402344,0.7470703,0.75390625,0.76123047,0.7685547,0.7758789,0.7836914,0.7915039,0.7993164,0.8076172,0.81640625,0.82470703,0.8330078,0.84228516,0.8515625,0.86083984,0.87060547,0.8803711,0.890625,0.9003906,0.91064453,0.92089844,0.9321289,0.9423828,0.95410156,0.96533203,0.9765625,0.98779297,1.0009766,1.0126953,1.0263672,1.0390625,1.0537109,1.0673828,1.0820312,1.0957031,1.1103516,1.125,1.140625,1.15625,1.1728516,1.1884766,1.2041016,1.2197266,1.2382812,1.2568359,1.2753906,1.2939453,1.3134766,1.3330078,1.3544922,1.375,1.3994141,1.4189453,1.4384766,1.4482422,1.4589844,1.4677734,1.4951172,1.4609375,1.4638672,0.96240234,0.94921875,0.9433594,0.9375,0.93310547,0.9301758,0.9267578,0.92333984,0.9199219,0.9165039,0.9135742,0.9111328,0.9082031,0.90478516,0.9013672,0.8984375,0.89501953,0.89208984,0.8886719,0.88671875,0.8833008,0.88134766,0.8779297,0.8745117,0.8720703,0.8691406,0.8647461,0.8618164,0.85791016,0.8569336,0.8520508,0.859375,0.84472656
0.3046875,0.3046875,0.3088379,0.30859375,0.31030273,0.31103516,0.31152344,0.31152344,0.31298828,0.31396484,0.31518555,0.31567383,0.3166504,0.3173828,0.31811523,0.31835938,0.31982422,0.3203125,0.3215332,0.32250977,0.32373047,0.3244629,0.3256836,0.3269043,0.32788086,0.32885742,0.33032227,0.33154297,0.3330078,0.33422852,0.33544922,0.33666992,0.33789062,0.33935547,0.34057617,0.34228516,0.34375,0.34521484,0.3466797,0.34814453,0.34960938,0.35131836,0.3527832,0.3544922,0.35620117,0.35766602,0.359375,0.36108398,0.36279297,0.36450195,0.36621094,0.36791992,0.3696289,0.37158203,0.37329102,0.375,0.37670898,0.37841797,0.3803711,0.38208008,0.38378906,0.3857422,0.38745117,0.3894043,0.39135742,0.39331055,0.39526367,0.39697266,0.39916992,0.40112305,0.4033203,0.40527344,0.40722656,0.4091797,0.4111328,0.41308594,0.41503906,0.41674805,0.41870117,0.42016602,0.42163086,0.42285156,0.42285156,0.42285156,0.42138672,0.4194336,0.4177246,0.4177246,0.41748047,0.41748047,0.41723633,0.41748047,0.41796875,0.41870117,0.41967773,0.42089844,0.42211914,0.42456055,0.42626953,0.42895508,0.43237305,0.43481445,0.43774414,0.44140625,0.44555664,0.44873047,0.45263672,0.45898438,0.4675293,0.48339844,0.49926758,0.50927734,0.5180664,0.5209961,0.5239258,0.5263672,0.5283203,0.5307617,0.5332031,0.5371094,0.54052734,0.54345703,0.5473633,0.55126953,0.5546875,0.55859375,0.5620117,0.56591797,0.5698242,0.57373047,0.5776367,0.58154297,0.5854492,0.58984375,0.59375,0.59765625,0.6020508,0.6064453,0.61083984,0.6152344,0.6196289,0.6245117,0.62890625,0.63427734,0.63916016,0.64453125,0.64990234,0.65527344,0.66064453,0.6660156,0.671875,0.6772461,0.68310547,0.68896484,0.6948242,0.7011719,0.70751953,0.7138672,0.72021484,0.7265625,0.73339844,0.7402344,0.7470703,0.75390625,0.76123047,0.7685547,0.7763672,0.7841797,0.7915039,0.7998047,0.80810547,0.81640625,0.82421875,0.8330078,0.84228516,0.8520508,0.86083984,0.87060547,0.8808594,0.8911133,0.9003906,0.9111328,0.9213867,0.9316406,0.9428711,0.9536133,0.96533203,0.9765625,0.9873047,1.0,1.0126953,1.0253906,1.0390625,1.0527344,1.0664062,1.0820312,1.0957031,1.1103516,1.125,1.140625,1.15625,1.1728516,1.1884766,1.2041016,1.2207031,1.2382812,1.2568359,1.2753906,1.2939453,1.3134766,1.3330078,1.3544922,1.3759766,1.3994141,1.4169922,1.4345703,1.4453125,1.4609375,1.4765625,1.4970703,1.4951172,1.4775391,0.9716797,0.9555664,0.94677734,0.94091797,0.9355469,0.9326172,0.9291992,0.92626953,0.92285156,0.9189453,0.9160156,0.91308594,0.91015625,0.9067383,0.9038086,0.9003906,0.89746094,0.89501953,0.89208984,0.8901367,0.88671875,0.88427734,0.88134766,0.87841797,0.8754883,0.8720703,0.86816406,0.8652344,0.8618164,0.86083984,0.8569336,0.8618164,0.8496094
0.3046875,0.3046875,0.30908203,0.30859375,0.31030273,0.31103516,0.31152344,0.31152344,0.31274414,0.31396484,0.3149414,0.31567383,0.31640625,0.31713867,0.31811523,0.31835938,0.31958008,0.3203125,0.3215332,0.32250977,0.32348633,0.32470703,0.32592773,0.3269043,0.328125,0.32910156,0.33032227,0.3317871,0.33276367,0.33422852,0.33544922,0.33666992,0.33789062,0.33935547,0.3408203,0.34228516,0.34399414,0.34521484,0.3466797,0.34838867,0.34985352,0.35131836,0.35302734,0.3544922,0.35620117,0.35791016,0.35961914,0.36132812,0.36279297,0.36450195,0.36621094,0.36791992,0.3696289,0.37158203,0.37304688,0.375,0.37646484,0.37841797,0.38012695,0.38208008,0.38378906,0.3857422,0.38745117,0.3894043,0.39135742,0.39331055,0.39501953,0.39697266,0.39892578,0.40112305,0.4033203,0.40527344,0.40722656,0.4091797,0.4111328,0.41308594,0.41503906,0.41674805,0.41870117,0.42016602,0.42211914,0.42382812,0.42382812,0.42382812,0.42285156,0.42114258,0.41918945,0.4189453,0.41845703,0.41845703,0.41796875,0.4182129,0.4189453,0.41967773,0.42114258,0.42236328,0.42358398,0.4260254,0.4284668,0.43115234,0.43359375,0.43603516,0.4387207,0.44213867,0.44702148,0.44995117,0.45336914,0.45996094,0.46777344,0.48828125,0.50439453,0.51171875,0.5175781,0.5214844,0.5239258,0.5263672,0.52783203,0.5307617,0.5332031,0.5366211,0.54003906,0.54345703,0.5473633,0.55126953,0.5546875,0.55810547,0.5620117,0.5654297,0.5698242,0.5732422,0.57714844,0.58154297,0.5854492,0.58935547,0.59375,0.59765625,0.6020508,0.60595703,0.61083984,0.6147461,0.6191406,0.62402344,0.62890625,0.63378906,0.63916016,0.64453125,0.64990234,0.65527344,0.66064453,0.6660156,0.671875,0.6772461,0.68310547,0.68896484,0.6948242,0.7011719,0.70703125,0.7138672,0.72021484,0.7270508,0.73339844,0.7397461,0.7470703,0.75390625,0.76123047,0.7685547,0.7763672,0.7841797,0.7919922,0.7998047,0.80810547,0.81640625,0.82470703,0.8334961,0.84228516,0.8515625,0.8613281,0.87109375,0.8808594,0.8911133,0.9008789,0.9111328,0.921875,0.9321289,0.9428711,0.95410156,0.96533203,0.9760742,0.9873047,0.9995117,1.0126953,1.0253906,1.0390625,1.0527344,1.0673828,1.0810547,1.0957031,1.109375,1.125,1.140625,1.15625,1.171875,1.1884766,1.2041016,1.2207031,1.2382812,1.2568359,1.2763672,1.2939453,1.3134766,1.3330078,1.3544922,1.375,1.3974609,1.4169922,1.4345703,1.4472656,1.4648438,1.4775391,1.4902344,1.4980469,1.4746094,0.9819336,0.95996094,0.95166016,0.9433594,0.93847656,0.9350586,0.9321289,0.92871094,0.92578125,0.9213867,0.91845703,0.91552734,0.91259766,0.9086914,0.9057617,0.90283203,0.89990234,0.89746094,0.89453125,0.8925781,0.88964844,0.88720703,0.8847656,0.88134766,0.87890625,0.875,0.87158203,0.86865234,0.8652344,0.8642578,0.86035156,0.86376953,0.85302734
0.3046875,0.3046875,0.3088379,0.3083496,0.3100586,0.31079102,0.31152344,0.31152344,0.31298828,0.3137207,0.3149414,0.31567383,0.31640625,0.31713867,0.31811523,0.31835938,0.31958008,0.3203125,0.3215332,0.32226562,0.32373047,0.3244629,0.32543945,0.3269043,0.328125,0.32910156,0.3305664,0.3317871,0.33276367,0.33422852,0.33544922,0.33642578,0.33789062,0.33935547,0.3408203,0.3425293,0.34375,0.34521484,0.3466797,0.34838867,0.34985352,0.3515625,0.35302734,0.3544922,0.35620117,0.35791016,0.35961914,0.36132812,0.3630371,0.36450195,0.36621094,0.36791992,0.3696289,0.3713379,0.37304688,0.37475586,0.37646484,0.37817383,0.38012695,0.38208008,0.38378906,0.3857422,0.38745117,0.3894043,0.39135742,0.3930664,0.39501953,0.39697266,0.39916992,0.40112305,0.40307617,0.40527344,0.40698242,0.4091797,0.4111328,0.41308594,0.41479492,0.41674805,0.41870117,0.42041016,0.42236328,0.4243164,0.4243164,0.42504883,0.42456055,0.42260742,0.41992188,0.4194336,0.41870117,0.4189453,0.41870117,0.4189453,0.41967773,0.42041016,0.421875,0.42358398,0.4248047,0.4272461,0.4309082,0.4333496,0.4345703,0.43725586,0.4399414,0.44335938,0.4482422,0.45141602,0.45507812,0.46166992,0.46899414,0.49023438,0.5073242,0.5136719,0.5180664,0.5214844,0.5239258,0.5258789,0.52734375,0.53027344,0.53271484,0.5361328,0.54003906,0.54296875,0.546875,0.55078125,0.5541992,0.55810547,0.5620117,0.5654297,0.56933594,0.5732422,0.57666016,0.5810547,0.5854492,0.58935547,0.5932617,0.59765625,0.6020508,0.60595703,0.61035156,0.6147461,0.6191406,0.62402344,0.62841797,0.63378906,0.6386719,0.64453125,0.64990234,0.65527344,0.66064453,0.6660156,0.671875,0.6772461,0.68310547,0.68896484,0.6948242,0.7011719,0.70703125,0.7133789,0.72021484,0.7265625,0.73291016,0.7397461,0.7470703,0.75390625,0.76123047,0.7685547,0.7763672,0.7841797,0.7919922,0.80029297,0.80810547,0.81640625,0.82470703,0.8339844,0.84277344,0.85253906,0.8613281,0.87109375,0.88134766,0.89160156,0.9008789,0.9116211,0.921875,0.9321289,0.9423828,0.95410156,0.96533203,0.9760742,0.9873047,1.0,1.0126953,1.0263672,1.0390625,1.0527344,1.0664062,1.0810547,1.0947266,1.109375,1.125,1.140625,1.15625,1.1728516,1.1884766,1.2041016,1.2207031,1.2382812,1.2578125,1.2763672,1.2949219,1.3144531,1.3330078,1.3535156,1.3740234,1.3964844,1.4169922,1.4345703,1.4492188,1.4667969,1.4775391,1.4902344,1.5,1.4824219,0.99072266,0.96533203,0.9555664,0.9477539,0.94189453,0.9379883,0.9345703,0.93115234,0.9277344,0.9238281,0.92089844,0.91796875,0.91503906,0.9116211,0.9082031,0.90527344,0.90234375,0.89990234,0.89746094,0.8955078,0.89208984,0.8901367,0.8876953,0.88427734,0.88183594,0.8779297,0.875,0.8720703,0.86865234,0.8671875,0.86376953,0.86572266,0.85839844
0.30444336,0.30517578,0.3088379,0.30810547,0.3100586,0.31079102,0.31152344,0.31152344,0.31298828,0.3137207,0.3149414,0.3154297,0.31640625,0.31713867,0.3178711,0.31835938,0.31958008,0.3203125,0.3215332,0.32250977,0.32373047,0.32470703,0.3256836,0.3269043,0.328125,0.32910156,0.33032227,0.3317871,0.3330078,0.33422852,0.33520508,0.33666992,0.33789062,0.3395996,0.34106445,0.3425293,0.34375,0.34521484,0.3466797,0.34838867,0.34985352,0.3515625,0.35302734,0.35473633,0.35620117,0.35791016,0.359375,0.36132812,0.36279297,0.36450195,0.36621094,0.36816406,0.3696289,0.3713379,0.37304688,0.37475586,0.37646484,0.37817383,0.38012695,0.38208008,0.38378906,0.38549805,0.38745117,0.3894043,0.39135742,0.3930664,0.39501953,0.39697266,0.39892578,0.40112305,0.40307617,0.4050293,0.40722656,0.4091797,0.4111328,0.41308594,0.41479492,0.4165039,0.41870117,0.4206543,0.42236328,0.4248047,0.42504883,0.4260254,0.42651367,0.4243164,0.42114258,0.42041016,0.4194336,0.41967773,0.4194336,0.41992188,0.4206543,0.42163086,0.42333984,0.42504883,0.42626953,0.42895508,0.4345703,0.43603516,0.4362793,0.4387207,0.44067383,0.44433594,0.4494629,0.45263672,0.45629883,0.46313477,0.47045898,0.49194336,0.50878906,0.51416016,0.5180664,0.5209961,0.5229492,0.5253906,0.52685547,0.52978516,0.53222656,0.53564453,0.5395508,0.54296875,0.546875,0.55029297,0.5541992,0.5576172,0.56152344,0.5654297,0.56933594,0.5727539,0.57666016,0.5810547,0.58496094,0.58935547,0.59375,0.59765625,0.6020508,0.60595703,0.61035156,0.6147461,0.6191406,0.62402344,0.62890625,0.63378906,0.6386719,0.64453125,0.64990234,0.65527344,0.66064453,0.6660156,0.6713867,0.6772461,0.68310547,0.68896484,0.6948242,0.7011719,0.70703125,0.7133789,0.71972656,0.7265625,0.73339844,0.7402344,0.7470703,0.75439453,0.76123047,0.7685547,0.7763672,0.78466797,0.7919922,0.80029297,0.80810547,0.81640625,0.82470703,0.8334961,0.84277344,0.8520508,0.8618164,0.87158203,0.88134766,0.89160156,0.9013672,0.9116211,0.9213867,0.9321289,0.9423828,0.95410156,0.96484375,0.9760742,0.9873047,1.0,1.0126953,1.0263672,1.0390625,1.0537109,1.0673828,1.0810547,1.0947266,1.109375,1.1240234,1.140625,1.1552734,1.171875,1.1884766,1.2041016,1.2207031,1.2382812,1.2578125,1.2763672,1.2949219,1.3144531,1.3330078,1.3535156,1.3730469,1.3955078,1.4150391,1.4345703,1.4492188,1.4677734,1.4794922,1.4921875,1.4990234,1.4716797,1.0019531,0.9692383,0.95947266,0.9506836,0.9448242,0.9404297,0.9375,0.93359375,0.9296875,0.92626953,0.92333984,0.9199219,0.9169922,0.9135742,0.91064453,0.9082031,0.90478516,0.90234375,0.89990234,0.8979492,0.89453125,0.8930664,0.8901367,0.88720703,0.8847656,0.88183594,0.87841797,0.8754883,0.8720703,0.8701172,0.86621094,0.86816406,0.86083984
0.30517578,0.3046875,0.30859375,0.30810547,0.3100586,0.31079102,0.3112793,0.31152344,0.31298828,0.3137207,0.31469727,0.3154297,0.31640625,0.31689453,0.3178711,0.31835938,0.31958008,0.3203125,0.3215332,0.32250977,0.32373047,0.32470703,0.3256836,0.3269043,0.328125,0.32910156,0.3305664,0.3317871,0.3330078,0.33398438,0.33520508,0.33666992,0.33813477,0.33935547,0.3408203,0.3425293,0.34399414,0.34521484,0.34692383,0.34838867,0.34985352,0.3515625,0.35302734,0.35473633,0.35620117,0.35791016,0.35961914,0.36132812,0.36279297,0.36450195,0.3659668,0.36791992,0.3696289,0.3713379,0.37304688,0.37475586,0.37646484,0.37841797,0.3798828,0.38183594,0.38354492,0.38549805,0.38745117,0.3894043,0.39135742,0.3930664,0.39501953,0.39697266,0.39916992,0.40112305,0.40307617,0.40527344,0.40722656,0.4091797,0.4111328,0.41308594,0.41479492,0.4165039,0.4189453,0.4206543,0.42285156,0.42578125,0.4260254,0.42749023,0.42822266,0.42578125,0.42236328,0.42138672,0.42016602,0.4206543,0.42041016,0.42089844,0.421875,0.42260742,0.4243164,0.42651367,0.42773438,0.43164062,0.4375,0.43774414,0.43774414,0.44018555,0.4416504,0.44506836,0.45043945,0.453125,0.4572754,0.46411133,0.47192383,0.49316406,0.50878906,0.51416016,0.5180664,0.5205078,0.52197266,0.52441406,0.5263672,0.5292969,0.5317383,0.53564453,0.5390625,0.54296875,0.546875,0.55029297,0.55371094,0.5576172,0.56152344,0.5649414,0.56884766,0.5727539,0.57714844,0.5810547,0.58496094,0.58935547,0.5932617,0.59716797,0.6015625,0.60595703,0.61035156,0.6147461,0.6191406,0.62402344,0.62890625,0.63378906,0.63916016,0.64453125,0.64990234,0.65527344,0.66064453,0.6660156,0.671875,0.6772461,0.68310547,0.68896484,0.6948242,0.7011719,0.70703125,0.7133789,0.71972656,0.7265625,0.73339844,0.7402344,0.7470703,0.75439453,0.76171875,0.76904297,0.7763672,0.78466797,0.7919922,0.80029297,0.80810547,0.8173828,0.8251953,0.8339844,0.8432617,0.85302734,0.8623047,0.87158203,0.88183594,0.89208984,0.9013672,0.9116211,0.9223633,0.9326172,0.9428711,0.95410156,0.96533203,0.9765625,0.98779297,1.0009766,1.0126953,1.0263672,1.0400391,1.0537109,1.0673828,1.0810547,1.0947266,1.109375,1.1240234,1.1396484,1.1552734,1.171875,1.1875,1.2041016,1.2207031,1.2392578,1.2578125,1.2763672,1.2949219,1.3144531,1.3330078,1.3535156,1.3720703,1.3945312,1.4140625,1.4335938,1.4501953,1.4677734,1.484375,1.4892578,1.5039062,1.4912109,1.4150391,0.9736328,0.96240234,0.9536133,0.9477539,0.9433594,0.9399414,0.93603516,0.9321289,0.92871094,0.92529297,0.9223633,0.9189453,0.9160156,0.91308594,0.91015625,0.90722656,0.90478516,0.90185547,0.89990234,0.89697266,0.89501953,0.8925781,0.8901367,0.8876953,0.88427734,0.88134766,0.87841797,0.8754883,0.87353516,0.8691406,0.8691406,0.86376953
0.30517578,0.30444336,0.30859375,0.30810547,0.3100586,0.31079102,0.3112793,0.3112793,0.31274414,0.3137207,0.31469727,0.31567383,0.31640625,0.31689453,0.31811523,0.31835938,0.31958008,0.3203125,0.3215332,0.32250977,0.3239746,0.32470703,0.32592773,0.3269043,0.328125,0.32910156,0.3305664,0.3317871,0.3330078,0.33398438,0.33520508,0.33642578,0.33789062,0.3395996,0.3408203,0.3425293,0.34375,0.34545898,0.3466797,0.34838867,0.35009766,0.3515625,0.35327148,0.35473633,0.35620117,0.35791016,0.359375,0.36132812,0.36279297,0.36450195,0.36621094,0.36791992,0.3696289,0.3713379,0.37304688,0.37475586,0.37646484,0.37817383,0.3798828,0.38208008,0.38378906,0.38549805,0.38745117,0.3894043,0.39135742,0.39331055,0.39501953,0.39697266,0.39916992,0.40112305,0.40307617,0.40527344,0.40722656,0.4091797,0.4111328,0.4128418,0.41503906,0.41674805,0.41870117,0.42089844,0.42333984,0.42626953,0.42700195,0.42822266,0.42919922,0.42700195,0.42382812,0.42236328,0.42089844,0.42138672,0.42089844,0.42163086,0.42285156,0.42382812,0.42578125,0.42797852,0.42993164,0.4333496,0.43920898,0.43945312,0.43945312,0.4411621,0.4428711,0.44604492,0.45092773,0.45410156,0.45825195,0.46606445,0.47436523,0.49438477,0.50927734,0.51416016,0.51708984,0.51953125,0.5209961,0.5234375,0.5258789,0.5288086,0.5317383,0.53564453,0.5390625,0.54248047,0.5463867,0.55029297,0.55371094,0.5576172,0.56103516,0.5654297,0.56884766,0.5727539,0.57714844,0.5810547,0.58496094,0.5888672,0.5932617,0.59716797,0.6015625,0.60595703,0.61035156,0.6147461,0.6191406,0.62402344,0.62890625,0.63378906,0.63916016,0.64453125,0.64990234,0.65527344,0.66064453,0.6660156,0.6713867,0.6772461,0.68310547,0.68896484,0.6948242,0.7006836,0.70703125,0.7133789,0.71972656,0.7265625,0.73339844,0.7402344,0.7470703,0.75439453,0.76171875,0.76904297,0.77685547,0.78466797,0.79248047,0.80078125,0.80859375,0.8173828,0.8251953,0.83447266,0.84375,0.8535156,0.86279297,0.8725586,0.88183594,0.89208984,0.90185547,0.9121094,0.9223633,0.9326172,0.9433594,0.95458984,0.9658203,0.9770508,0.98828125,1.0,1.0136719,1.0263672,1.0390625,1.0527344,1.0673828,1.0810547,1.0947266,1.109375,1.1240234,1.1396484,1.1552734,1.171875,1.1875,1.2041016,1.2207031,1.2392578,1.2578125,1.2773438,1.2949219,1.3144531,1.3330078,1.3525391,1.3720703,1.3935547,1.4130859,1.4326172,1.4501953,1.4697266,1.4853516,1.4912109,1.5087891,1.5039062,1.4667969,0.9736328,0.9658203,0.95654297,0.9511719,0.94628906,0.9423828,0.9379883,0.9350586,0.93115234,0.9277344,0.9248047,0.921875,0.91845703,0.91552734,0.9121094,0.90966797,0.9067383,0.9038086,0.90185547,0.8989258,0.89746094,0.89501953,0.8925781,0.8901367,0.88720703,0.88427734,0.8808594,0.8779297,0.87597656,0.8720703,0.87060547,0.8652344
0.30566406,0.3046875,0.30859375,0.30786133,0.3100586,0.31079102,0.3112793,0.31152344,0.3125,0.3137207,0.31469727,0.31567383,0.3166504,0.31713867,0.31811523,0.31835938,0.31958008,0.32055664,0.3215332,0.32250977,0.3239746,0.32470703,0.32592773,0.3269043,0.32836914,0.3293457,0.3305664,0.3317871,0.3330078,0.33398438,0.33520508,0.33642578,0.33789062,0.33935547,0.3408203,0.3425293,0.34375,0.34521484,0.3466797,0.34838867,0.35009766,0.3515625,0.35327148,0.35473633,0.3564453,0.35791016,0.359375,0.36108398,0.36279297,0.36450195,0.3659668,0.36791992,0.3696289,0.3713379,0.37280273,0.37475586,0.37646484,0.37817383,0.38012695,0.38183594,0.38378906,0.3857422,0.38745117,0.3894043,0.39111328,0.3930664,0.39501953,0.39697266,0.39916992,0.40112305,0.40307617,0.40527344,0.40722656,0.4091797,0.41137695,0.41308594,0.41479492,0.4165039,0.4189453,0.42114258,0.42358398,0.42651367,0.42749023,0.42919922,0.43017578,0.42797852,0.4248047,0.42333984,0.42138672,0.421875,0.42163086,0.42236328,0.42382812,0.42504883,0.4272461,0.42993164,0.4321289,0.43554688,0.44067383,0.44067383,0.4411621,0.4423828,0.44384766,0.44702148,0.45141602,0.45483398,0.45947266,0.46777344,0.4765625,0.49609375,0.5097656,0.51416016,0.51660156,0.5185547,0.5205078,0.5229492,0.5253906,0.5288086,0.5317383,0.53515625,0.5390625,0.54248047,0.54589844,0.5498047,0.55371094,0.5576172,0.56103516,0.5649414,0.56933594,0.5732422,0.57714844,0.5805664,0.58447266,0.5888672,0.5932617,0.59716797,0.6015625,0.60595703,0.61035156,0.6147461,0.6191406,0.62402344,0.62890625,0.63427734,0.63916016,0.64501953,0.6503906,0.65527344,0.66064453,0.6665039,0.671875,0.6772461,0.68310547,0.68896484,0.6948242,0.7006836,0.70703125,0.7133789,0.71972656,0.7265625,0.73339844,0.7402344,0.7475586,0.75439453,0.76220703,0.76953125,0.77734375,0.78466797,0.79248047,0.80078125,0.80859375,0.81689453,0.8256836,0.83447266,0.84375,0.8535156,0.86279297,0.8725586,0.88183594,0.89208984,0.90185547,0.91259766,0.9223633,0.9326172,0.9433594,0.95458984,0.9658203,0.9770508,0.98828125,1.0009766,1.0126953,1.0263672,1.0390625,1.0527344,1.0673828,1.0810547,1.09375,1.109375,1.1240234,1.1396484,1.1552734,1.171875,1.1875,1.2041016,1.2207031,1.2392578,1.2578125,1.2763672,1.2958984,1.3144531,1.3330078,1.3525391,1.3710938,1.3925781,1.4121094,1.4316406,1.4511719,1.4716797,1.4853516,1.4941406,1.5107422,1.5126953,1.4960938,0.97802734,0.9682617,0.9604492,0.95410156,0.94873047,0.9453125,0.94091797,0.9375,0.93310547,0.9301758,0.9272461,0.9243164,0.92089844,0.91748047,0.9140625,0.9116211,0.9091797,0.9067383,0.9042969,0.9013672,0.89941406,0.89746094,0.89501953,0.8925781,0.88916016,0.88671875,0.88378906,0.8798828,0.8779297,0.8725586,0.87158203,0.8666992
0.30517578,0.30419922,0.30859375,0.30786133,0.3100586,0.31054688,0.31103516,0.31103516,0.3125,0.31347656,0.31469727,0.31567383,0.3166504,0.31713867,0.31811523,0.31835938,0.31958008,0.32055664,0.3215332,0.32250977,0.3239746,0.32495117,0.32617188,0.32714844,0.32836914,0.3293457,0.3305664,0.33154297,0.3330078,0.33422852,0.33520508,0.33666992,0.33813477,0.3395996,0.3408203,0.3425293,0.34399414,0.34545898,0.34692383,0.3486328,0.3503418,0.35180664,0.35327148,0.35498047,0.3564453,0.35791016,0.35961914,0.36108398,0.3630371,0.36450195,0.36621094,0.36791992,0.3696289,0.37109375,0.37280273,0.37451172,0.37646484,0.37817383,0.3798828,0.38183594,0.38378906,0.3857422,0.38745117,0.3894043,0.39135742,0.39331055,0.39526367,0.3972168,0.39916992,0.4013672,0.4033203,0.40527344,0.40722656,0.4091797,0.41137695,0.41308594,0.41479492,0.4165039,0.4189453,0.42114258,0.42358398,0.42651367,0.42822266,0.42944336,0.43041992,0.42871094,0.42651367,0.42407227,0.42236328,0.42285156,0.42236328,0.42358398,0.4248047,0.42626953,0.42871094,0.43139648,0.4338379,0.4375,0.4411621,0.4416504,0.4423828,0.44335938,0.44482422,0.44799805,0.4519043,0.45629883,0.46069336,0.46923828,0.48095703,0.49829102,0.5097656,0.5126953,0.5151367,0.5175781,0.51953125,0.52246094,0.52490234,0.5283203,0.53125,0.53515625,0.5385742,0.5419922,0.54589844,0.5498047,0.55322266,0.5571289,0.56103516,0.5649414,0.56884766,0.5732422,0.57666016,0.5805664,0.58447266,0.5888672,0.59277344,0.59716797,0.6015625,0.60595703,0.61035156,0.6152344,0.6196289,0.6245117,0.62939453,0.63427734,0.63964844,0.64501953,0.6503906,0.65527344,0.6611328,0.6665039,0.671875,0.6772461,0.68310547,0.68896484,0.6948242,0.7006836,0.70703125,0.7133789,0.71972656,0.7265625,0.73339844,0.74072266,0.7475586,0.7548828,0.76171875,0.76953125,0.77734375,0.78515625,0.79248047,0.80078125,0.80908203,0.8173828,0.8261719,0.83496094,0.8442383,0.8535156,0.86279297,0.8725586,0.88183594,0.89160156,0.9013672,0.9121094,0.9223633,0.93310547,0.9428711,0.95458984,0.9658203,0.97753906,0.98828125,1.0009766,1.0136719,1.0263672,1.0400391,1.0527344,1.0664062,1.0810547,1.09375,1.109375,1.1240234,1.1386719,1.1542969,1.171875,1.1875,1.2041016,1.2207031,1.2392578,1.2578125,1.2763672,1.2949219,1.3134766,1.3330078,1.3515625,1.3710938,1.3916016,1.4111328,1.4316406,1.4511719,1.4726562,1.484375,1.4970703,1.5117188,1.5292969,1.5087891,0.98828125,0.9707031,0.96533203,0.95703125,0.9511719,0.9477539,0.9433594,0.9399414,0.93603516,0.9326172,0.9296875,0.9267578,0.92333984,0.9199219,0.9169922,0.9140625,0.9111328,0.9086914,0.90625,0.9033203,0.90185547,0.89990234,0.89746094,0.89501953,0.89160156,0.8886719,0.88623047,0.8823242,0.8798828,0.875,0.8725586,0.86865234
0.30493164,0.30419922,0.30859375,0.30786133,0.30981445,0.31054688,0.3112793,0.3112793,0.31274414,0.31347656,0.31445312,0.31567383,0.31640625,0.31689453,0.3178711,0.31835938,0.31958008,0.32055664,0.3215332,0.3227539,0.3239746,0.32495117,0.32592773,0.3269043,0.32836914,0.32910156,0.3305664,0.33154297,0.33276367,0.33422852,0.33520508,0.33666992,0.33813477,0.3395996,0.34106445,0.3425293,0.34399414,0.34545898,0.34716797,0.3486328,0.3503418,0.35180664,0.35351562,0.35498047,0.3564453,0.3581543,0.35961914,0.36132812,0.3630371,0.3647461,0.36621094,0.36791992,0.36938477,0.37109375,0.37280273,0.37451172,0.37646484,0.37817383,0.3798828,0.38183594,0.38378906,0.3857422,0.3876953,0.3894043,0.39135742,0.3935547,0.3955078,0.3972168,0.39941406,0.4013672,0.4033203,0.40551758,0.40722656,0.4091797,0.4111328,0.41308594,0.4152832,0.41674805,0.41918945,0.42114258,0.42358398,0.4267578,0.4284668,0.43017578,0.4309082,0.42919922,0.42773438,0.42504883,0.4230957,0.42358398,0.42285156,0.4243164,0.42578125,0.4272461,0.42993164,0.4326172,0.43530273,0.43847656,0.44189453,0.4428711,0.44360352,0.44433594,0.44555664,0.44848633,0.4519043,0.45703125,0.46142578,0.47143555,0.48608398,0.5004883,0.5083008,0.51171875,0.51416016,0.51660156,0.5185547,0.5214844,0.52441406,0.52783203,0.53125,0.53466797,0.53808594,0.5419922,0.54541016,0.5493164,0.5527344,0.5571289,0.56103516,0.5649414,0.56884766,0.5727539,0.57666016,0.5805664,0.58447266,0.5888672,0.59277344,0.59716797,0.6010742,0.60595703,0.61035156,0.6152344,0.6191406,0.6245117,0.62939453,0.6347656,0.63916016,0.64453125,0.6503906,0.6557617,0.66064453,0.6665039,0.6713867,0.6772461,0.68310547,0.68896484,0.6948242,0.7006836,0.70703125,0.7133789,0.71972656,0.7265625,0.73339844,0.7402344,0.7475586,0.7548828,0.76220703,0.76953125,0.77734375,0.78515625,0.79296875,0.80126953,0.80908203,0.8178711,0.82666016,0.8354492,0.8442383,0.8540039,0.86328125,0.8725586,0.8823242,0.8925781,0.90185547,0.9121094,0.92285156,0.93310547,0.9433594,0.9550781,0.9663086,0.97753906,0.98876953,1.0009766,1.0136719,1.0263672,1.0390625,1.0527344,1.0664062,1.0810547,1.0947266,1.1083984,1.1230469,1.1386719,1.1542969,1.1708984,1.1884766,1.2041016,1.2207031,1.2382812,1.2568359,1.2753906,1.2939453,1.3134766,1.3320312,1.3515625,1.3701172,1.390625,1.4111328,1.4316406,1.4501953,1.4716797,1.484375,1.4990234,1.5205078,1.5400391,1.5078125,0.9980469,0.97509766,0.96972656,0.9609375,0.95458984,0.9506836,0.94628906,0.9423828,0.93847656,0.9355469,0.9321289,0.9291992,0.92578125,0.92285156,0.9194336,0.9160156,0.9135742,0.91064453,0.9086914,0.9057617,0.9042969,0.90185547,0.9003906,0.89697266,0.89404297,0.8911133,0.8881836,0.8847656,0.8823242,0.8779297,0.8754883,0.87158203
0.3046875,0.30395508,0.30859375,0.3076172,0.30981445,0.31030273,0.31103516,0.3112793,0.3125,0.31323242,0.31420898,0.31518555,0.31640625,0.3166504,0.3178711,0.31835938,0.31982422,0.32055664,0.3215332,0.32250977,0.3239746,0.32495117,0.32592773,0.3269043,0.328125,0.32910156,0.33032227,0.3317871,0.3330078,0.33422852,0.33520508,0.33666992,0.33813477,0.3395996,0.3408203,0.3425293,0.34423828,0.34545898,0.34692383,0.3486328,0.3503418,0.35180664,0.35351562,0.35498047,0.3564453,0.3581543,0.35961914,0.36108398,0.36279297,0.36450195,0.36621094,0.36791992,0.36938477,0.37109375,0.37280273,0.37451172,0.3762207,0.37817383,0.3798828,0.38183594,0.38354492,0.38549805,0.38745117,0.3894043,0.39135742,0.3935547,0.39526367,0.3972168,0.39941406,0.4013672,0.40356445,0.40551758,0.40722656,0.40893555,0.4111328,0.41333008,0.41503906,0.4169922,0.4189453,0.42114258,0.42358398,0.42651367,0.4284668,0.43017578,0.43066406,0.42993164,0.42871094,0.4260254,0.42407227,0.4243164,0.42382812,0.42529297,0.4267578,0.42822266,0.4309082,0.4338379,0.4362793,0.43945312,0.44262695,0.44384766,0.44506836,0.44506836,0.4465332,0.44970703,0.45263672,0.4580078,0.4633789,0.4753418,0.4909668,0.50097656,0.5073242,0.51123047,0.5131836,0.515625,0.5175781,0.5209961,0.5239258,0.52734375,0.5307617,0.53466797,0.53808594,0.5419922,0.54541016,0.5493164,0.55322266,0.5571289,0.56103516,0.5649414,0.56884766,0.5727539,0.57666016,0.5805664,0.58447266,0.5883789,0.59277344,0.5966797,0.6010742,0.60546875,0.61035156,0.6152344,0.6196289,0.6245117,0.62939453,0.6347656,0.63964844,0.64501953,0.6503906,0.6557617,0.6611328,0.6665039,0.671875,0.6772461,0.68310547,0.68896484,0.6948242,0.7011719,0.70703125,0.7133789,0.71972656,0.7265625,0.73339844,0.7402344,0.7475586,0.7548828,0.76220703,0.77001953,0.77734375,0.78515625,0.79296875,0.80126953,0.8095703,0.8178711,0.82666016,0.8354492,0.84472656,0.8544922,0.86328125,0.8730469,0.8828125,0.8925781,0.90185547,0.91259766,0.92285156,0.93310547,0.94384766,0.9550781,0.9663086,0.97753906,0.98876953,1.0009766,1.0136719,1.0263672,1.0390625,1.0527344,1.0664062,1.0800781,1.0947266,1.1083984,1.1230469,1.1386719,1.1542969,1.1708984,1.1884766,1.2041016,1.2207031,1.2382812,1.2568359,1.2753906,1.2939453,1.3134766,1.3320312,1.3515625,1.3701172,1.390625,1.4101562,1.4306641,1.4492188,1.4707031,1.4863281,1.5048828,1.5253906,1.5488281,1.5302734,1.1474609,0.9785156,0.97314453,0.96435547,0.95703125,0.953125,0.9482422,0.9448242,0.94091797,0.9379883,0.9345703,0.9316406,0.92822266,0.92529297,0.921875,0.91845703,0.9160156,0.91259766,0.91064453,0.90771484,0.90625,0.9038086,0.90234375,0.8989258,0.8959961,0.8935547,0.890625,0.88720703,0.88427734,0.8803711,0.87841797,0.8725586
0.30419922,0.30395508,0.3083496,0.3076172,0.30981445,0.31054688,0.31103516,0.3112793,0.31274414,0.31347656,0.31445312,0.3154297,0.31640625,0.3166504,0.3178711,0.31835938,0.31958008,0.32055664,0.32177734,0.32250977,0.32373047,0.32470703,0.3256836,0.3269043,0.328125,0.32910156,0.3305664,0.3317871,0.3330078,0.33422852,0.33544922,0.33691406,0.33813477,0.3395996,0.3413086,0.3425293,0.34423828,0.34570312,0.34692383,0.34887695,0.3503418,0.35205078,0.35351562,0.35498047,0.3564453,0.3581543,0.35961914,0.36108398,0.36279297,0.36450195,0.3659668,0.36791992,0.36938477,0.37109375,0.37280273,0.37426758,0.3762207,0.3779297,0.3798828,0.38183594,0.38354492,0.38549805,0.38745117,0.3894043,0.39135742,0.3935547,0.3955078,0.3972168,0.39941406,0.4013672,0.4033203,0.40527344,0.40698242,0.4091797,0.4111328,0.41333008,0.41503906,0.41674805,0.4189453,0.42114258,0.42358398,0.42626953,0.42822266,0.43017578,0.4309082,0.43041992,0.42993164,0.4272461,0.4248047,0.4248047,0.4243164,0.4260254,0.42749023,0.42919922,0.4321289,0.43481445,0.4375,0.44067383,0.44311523,0.44458008,0.4465332,0.44677734,0.4477539,0.45141602,0.45410156,0.46020508,0.4650879,0.47998047,0.49487305,0.5024414,0.5073242,0.5102539,0.51220703,0.5151367,0.51708984,0.52001953,0.5234375,0.52685547,0.53027344,0.5341797,0.53808594,0.5419922,0.54541016,0.5493164,0.5527344,0.5571289,0.56103516,0.5649414,0.56884766,0.5727539,0.57666016,0.5805664,0.58447266,0.5883789,0.59277344,0.59716797,0.6015625,0.60595703,0.61035156,0.6152344,0.6196289,0.6245117,0.6298828,0.6347656,0.63964844,0.64501953,0.6503906,0.6557617,0.6611328,0.6665039,0.671875,0.6772461,0.68310547,0.68896484,0.6948242,0.7011719,0.70703125,0.7133789,0.71972656,0.7270508,0.7338867,0.74072266,0.7475586,0.7548828,0.76220703,0.77001953,0.77734375,0.78564453,0.79345703,0.8017578,0.8095703,0.8183594,0.82666016,0.8359375,0.84521484,0.8544922,0.86328125,0.8730469,0.8823242,0.8925781,0.90185547,0.91259766,0.9223633,0.93310547,0.94384766,0.9555664,0.9663086,0.97753906,0.98876953,1.0009766,1.0136719,1.0263672,1.0390625,1.0527344,1.0664062,1.0800781,1.09375,1.1083984,1.1230469,1.1386719,1.1542969,1.1708984,1.1875,1.2041016,1.2197266,1.2373047,1.2558594,1.2753906,1.2939453,1.3134766,1.3310547,1.3505859,1.3691406,1.3886719,1.4091797,1.4296875,1.4482422,1.4707031,1.4882812,1.5097656,1.5283203,1.5410156,1.5517578,1.5126953,0.98291016,0.9770508,0.96777344,0.95947266,0.9555664,0.9501953,0.94677734,0.9428711,0.9399414,0.9370117,0.93408203,0.93066406,0.9272461,0.9238281,0.92089844,0.91845703,0.91503906,0.91308594,0.91015625,0.9086914,0.90625,0.9042969,0.9013672,0.8984375,0.8959961,0.8925781,0.88916016,0.88671875,0.88183594,0.8803711,0.87353516
0.30419922,0.30395508,0.3083496,0.30786133,0.3100586,0.31054688,0.31103516,0.3112793,0.3125,0.31347656,0.31445312,0.31518555,0.31640625,0.31689453,0.3178711,0.31835938,0.31982422,0.3203125,0.32177734,0.32250977,0.3239746,0.32495117,0.32592773,0.3269043,0.328125,0.3293457,0.3305664,0.33203125,0.33325195,0.33422852,0.33544922,0.33691406,0.3383789,0.33984375,0.3413086,0.34277344,0.34423828,0.34570312,0.3474121,0.34887695,0.3503418,0.35180664,0.35327148,0.35498047,0.3564453,0.35791016,0.35961914,0.36108398,0.36279297,0.3642578,0.3659668,0.36791992,0.36938477,0.37109375,0.37280273,0.37451172,0.3762207,0.37817383,0.3798828,0.38183594,0.38354492,0.38549805,0.38745117,0.3894043,0.39135742,0.3935547,0.39526367,0.3972168,0.39916992,0.4013672,0.40307617,0.40527344,0.40722656,0.4091797,0.4111328,0.41333008,0.41503906,0.4169922,0.41918945,0.42114258,0.42358398,0.4260254,0.42822266,0.43017578,0.4309082,0.43066406,0.43066406,0.42822266,0.42578125,0.4255371,0.42504883,0.42700195,0.42822266,0.42993164,0.43286133,0.43554688,0.43847656,0.44140625,0.4440918,0.4453125,0.4477539,0.4477539,0.4489746,0.453125,0.4555664,0.46166992,0.46875,0.4831543,0.49731445,0.5029297,0.50634766,0.50927734,0.51123047,0.51416016,0.5161133,0.51953125,0.5229492,0.5263672,0.53027344,0.5336914,0.53759766,0.5415039,0.54541016,0.5488281,0.5527344,0.5571289,0.56103516,0.5649414,0.56884766,0.5727539,0.57666016,0.5805664,0.58447266,0.5888672,0.59277344,0.59716797,0.6015625,0.6064453,0.61035156,0.6152344,0.6201172,0.6245117,0.6298828,0.6347656,0.63964844,0.64501953,0.6503906,0.6557617,0.6611328,0.6665039,0.671875,0.6777344,0.68310547,0.68896484,0.6948242,0.70166016,0.70751953,0.7133789,0.72021484,0.7270508,0.7338867,0.74072266,0.7475586,0.7553711,0.76220703,0.77001953,0.77734375,0.78564453,0.79345703,0.8017578,0.8095703,0.81884766,0.82714844,0.8364258,0.84521484,0.8544922,0.86328125,0.8730469,0.8823242,0.89208984,0.90234375,0.9121094,0.9223633,0.9326172,0.9433594,0.9550781,0.9663086,0.97753906,0.98876953,1.0009766,1.0136719,1.0263672,1.0390625,1.0517578,1.0654297,1.0791016,1.0927734,1.1074219,1.1230469,1.1386719,1.1542969,1.1708984,1.1875,1.2041016,1.2197266,1.2373047,1.2548828,1.2744141,1.2939453,1.3125,1.3310547,1.3505859,1.3681641,1.3876953,1.4082031,1.4287109,1.4472656,1.4707031,1.4892578,1.5107422,1.5273438,1.5439453,1.5585938,1.5332031,0.984375,0.9794922,0.96972656,0.9614258,0.95703125,0.95214844,0.94873047,0.9453125,0.94189453,0.9394531,0.93652344,0.9326172,0.9291992,0.92578125,0.9238281,0.92089844,0.91796875,0.91503906,0.91259766,0.91064453,0.9086914,0.90625,0.9033203,0.9003906,0.8979492,0.8955078,0.89160156,0.88916016,0.8847656,0.8823242,0.87597656
0.30444336,0.30444336,0.3083496,0.3076172,0.30981445,0.31054688,0.31103516,0.3112793,0.3125,0.31323242,0.31445312,0.3154297,0.3166504,0.31713867,0.31811523,0.31835938,0.31958008,0.3203125,0.3215332,0.32250977,0.32373047,0.32495117,0.32592773,0.32666016,0.328125,0.32910156,0.3305664,0.3317871,0.33325195,0.33447266,0.33569336,0.3371582,0.3383789,0.33984375,0.3413086,0.34301758,0.34423828,0.34570312,0.3474121,0.34887695,0.3503418,0.3515625,0.35327148,0.35498047,0.3564453,0.35791016,0.359375,0.36083984,0.36254883,0.3642578,0.3659668,0.36767578,0.36938477,0.37109375,0.37280273,0.37426758,0.3762207,0.3779297,0.3798828,0.3815918,0.38354492,0.38549805,0.38720703,0.3894043,0.39135742,0.39331055,0.39501953,0.3972168,0.39916992,0.40112305,0.40307617,0.40527344,0.40722656,0.4091797,0.4111328,0.41308594,0.41503906,0.41723633,0.41918945,0.42114258,0.42358398,0.4260254,0.42822266,0.43017578,0.43115234,0.43115234,0.43115234,0.42895508,0.42651367,0.42651367,0.4260254,0.42749023,0.42895508,0.43066406,0.43359375,0.43652344,0.43920898,0.44213867,0.44482422,0.44628906,0.44873047,0.4489746,0.4494629,0.4543457,0.45703125,0.46411133,0.47338867,0.48779297,0.49926758,0.50341797,0.5058594,0.5083008,0.5102539,0.5131836,0.5151367,0.51904297,0.52246094,0.5263672,0.52978516,0.5336914,0.53759766,0.5415039,0.54541016,0.5493164,0.5527344,0.5571289,0.5605469,0.5649414,0.5683594,0.5722656,0.57666016,0.5805664,0.58496094,0.5888672,0.59277344,0.59716797,0.6015625,0.6064453,0.61083984,0.6152344,0.6201172,0.625,0.6298828,0.6352539,0.63964844,0.64501953,0.64990234,0.6557617,0.6611328,0.6665039,0.671875,0.6777344,0.68359375,0.68896484,0.6953125,0.70166016,0.70703125,0.7138672,0.72021484,0.7270508,0.7338867,0.74072266,0.7480469,0.7553711,0.7626953,0.7705078,0.77783203,0.7861328,0.7939453,0.8022461,0.8100586,0.81884766,0.8276367,0.8364258,0.84521484,0.8544922,0.86328125,0.8730469,0.8823242,0.8925781,0.90185547,0.9121094,0.9223633,0.93310547,0.9433594,0.9550781,0.9658203,0.97753906,0.98876953,1.0009766,1.0136719,1.0263672,1.0390625,1.0517578,1.0654297,1.0791016,1.0927734,1.1074219,1.1230469,1.1386719,1.1542969,1.1708984,1.1875,1.2041016,1.2207031,1.2382812,1.2558594,1.2744141,1.2939453,1.3125,1.3320312,1.3505859,1.3681641,1.3886719,1.4082031,1.4287109,1.4482422,1.4716797,1.4902344,1.5107422,1.5263672,1.5458984,1.5625,1.5341797,0.98779297,0.98291016,0.97314453,0.96435547,0.95996094,0.95458984,0.9506836,0.9477539,0.94433594,0.94140625,0.93847656,0.9350586,0.93115234,0.92822266,0.92578125,0.92285156,0.9199219,0.91748047,0.91503906,0.9135742,0.9111328,0.9091797,0.9057617,0.90283203,0.9003906,0.8979492,0.89404297,0.89208984,0.8876953,0.8857422,0.87939453
0.3046875,0.30395508,0.3083496,0.3076172,0.3095703,0.31054688,0.31103516,0.3112793,0.31274414,0.31347656,0.31445312,0.3154297,0.31689453,0.3173828,0.31811523,0.31835938,0.31958008,0.32055664,0.3215332,0.3227539,0.3239746,0.32495117,0.32592773,0.3269043,0.328125,0.32910156,0.3305664,0.33203125,0.3330078,0.33447266,0.33569336,0.3371582,0.33862305,0.3400879,0.3413086,0.34301758,0.34448242,0.34570312,0.34716797,0.34887695,0.3503418,0.35180664,0.35327148,0.35498047,0.35620117,0.35766602,0.359375,0.36083984,0.3623047,0.3642578,0.3659668,0.36743164,0.36914062,0.3708496,0.37231445,0.37451172,0.37597656,0.3779297,0.37963867,0.3815918,0.38330078,0.38549805,0.38745117,0.3894043,0.39135742,0.39331055,0.39526367,0.3972168,0.39916992,0.40112305,0.4033203,0.4050293,0.40698242,0.40893555,0.41088867,0.41308594,0.41503906,0.4169922,0.41918945,0.42114258,0.42358398,0.42578125,0.42797852,0.42993164,0.43115234,0.43139648,0.43164062,0.4296875,0.42749023,0.42700195,0.42700195,0.4284668,0.42944336,0.43139648,0.43408203,0.43676758,0.43969727,0.4428711,0.4453125,0.44726562,0.44970703,0.45092773,0.45141602,0.45654297,0.45947266,0.46728516,0.48046875,0.49145508,0.5,0.5029297,0.5048828,0.5078125,0.5097656,0.5126953,0.5151367,0.51904297,0.52246094,0.5263672,0.52978516,0.5336914,0.53759766,0.5415039,0.54541016,0.5493164,0.5527344,0.5566406,0.5605469,0.5644531,0.5683594,0.5727539,0.57666016,0.5805664,0.58496094,0.5888672,0.59277344,0.59765625,0.6020508,0.6064453,0.61083984,0.6152344,0.6201172,0.625,0.6298828,0.6352539,0.6401367,0.64501953,0.6503906,0.6557617,0.6611328,0.6665039,0.671875,0.6777344,0.68359375,0.6894531,0.6953125,0.70166016,0.70751953,0.71435547,0.7207031,0.72753906,0.734375,0.74121094,0.7480469,0.7558594,0.7626953,0.7705078,0.77783203,0.7861328,0.7939453,0.8022461,0.8105469,0.81933594,0.8276367,0.8364258,0.8457031,0.8544922,0.86328125,0.8730469,0.8828125,0.8925781,0.90185547,0.9121094,0.9223633,0.93310547,0.9428711,0.95458984,0.9658203,0.97753906,0.98876953,1.0009766,1.0136719,1.0253906,1.0380859,1.0517578,1.0654297,1.0791016,1.0927734,1.1074219,1.1220703,1.1386719,1.1542969,1.1708984,1.1875,1.2041016,1.2207031,1.2382812,1.2558594,1.2744141,1.2929688,1.3125,1.3320312,1.3505859,1.3681641,1.3876953,1.4082031,1.4296875,1.4482422,1.4726562,1.4912109,1.5107422,1.5273438,1.5410156,1.5595703,1.53125,0.99658203,0.98583984,0.9746094,0.9663086,0.9614258,0.95654297,0.953125,0.94921875,0.94628906,0.94384766,0.9404297,0.9370117,0.93359375,0.93066406,0.92822266,0.92529297,0.9223633,0.9199219,0.91748047,0.91552734,0.91308594,0.9111328,0.90771484,0.90478516,0.90185547,0.89941406,0.8964844,0.89404297,0.8901367,0.88916016,0.88183594
0.30517578,0.3046875,0.30810547,0.30737305,0.30981445,0.31054688,0.3112793,0.3112793,0.3125,0.31347656,0.31469727,0.31567383,0.31689453,0.3173828,0.31811523,0.31860352,0.31958008,0.32055664,0.32177734,0.32299805,0.32421875,0.32495117,0.32592773,0.3269043,0.32836914,0.32958984,0.33081055,0.33203125,0.33325195,0.33447266,0.3359375,0.33764648,0.33862305,0.3400879,0.34155273,0.34301758,0.34448242,0.34570312,0.3474121,0.3491211,0.35058594,0.35180664,0.35327148,0.35473633,0.35620117,0.35791016,0.359375,0.36083984,0.36254883,0.36401367,0.36572266,0.36743164,0.36914062,0.3708496,0.37231445,0.37451172,0.3762207,0.3779297,0.37963867,0.3815918,0.38330078,0.3852539,0.38745117,0.3894043,0.39135742,0.39331055,0.39526367,0.3972168,0.39916992,0.40112305,0.40307617,0.4050293,0.40698242,0.40893555,0.4111328,0.41308594,0.4152832,0.41723633,0.41918945,0.42138672,0.42358398,0.42578125,0.42822266,0.43017578,0.43139648,0.43188477,0.4321289,0.43066406,0.4284668,0.42797852,0.42773438,0.42919922,0.43041992,0.43164062,0.43432617,0.43725586,0.44018555,0.44360352,0.44628906,0.44848633,0.45092773,0.45288086,0.45361328,0.45947266,0.46240234,0.47338867,0.48657227,0.49414062,0.49902344,0.5024414,0.50439453,0.50683594,0.50927734,0.51220703,0.5151367,0.5185547,0.52246094,0.5258789,0.52978516,0.5336914,0.5371094,0.5415039,0.54541016,0.5493164,0.5527344,0.5571289,0.5605469,0.5644531,0.5683594,0.5722656,0.57666016,0.5805664,0.58447266,0.5888672,0.5932617,0.59765625,0.6020508,0.6064453,0.61083984,0.61572266,0.62060547,0.6254883,0.6298828,0.6347656,0.63964844,0.64501953,0.6503906,0.6557617,0.6611328,0.6669922,0.6723633,0.67822266,0.68408203,0.6894531,0.6953125,0.70166016,0.7080078,0.71435547,0.7211914,0.72753906,0.734375,0.7416992,0.74853516,0.75634766,0.7631836,0.7709961,0.7783203,0.7866211,0.7944336,0.8022461,0.8105469,0.8198242,0.8276367,0.83691406,0.8457031,0.85498047,0.86328125,0.8730469,0.8828125,0.8925781,0.90185547,0.9121094,0.9223633,0.9326172,0.9433594,0.95410156,0.9658203,0.97753906,0.9892578,1.0009766,1.0126953,1.0253906,1.0380859,1.0517578,1.0654297,1.078125,1.0927734,1.1074219,1.1230469,1.1386719,1.1542969,1.1708984,1.1875,1.203125,1.2197266,1.2373047,1.2558594,1.2744141,1.2929688,1.3125,1.3320312,1.3505859,1.3681641,1.3876953,1.4082031,1.4287109,1.4482422,1.4726562,1.4921875,1.5097656,1.5273438,1.5400391,1.5634766,1.5107422,1.0097656,0.9892578,0.9765625,0.96875,0.9633789,0.9580078,0.95458984,0.9511719,0.9482422,0.9458008,0.9423828,0.93896484,0.93603516,0.93310547,0.93066406,0.9277344,0.9248047,0.92285156,0.9199219,0.91796875,0.91552734,0.91308594,0.90966797,0.9067383,0.9038086,0.90185547,0.8989258,0.8959961,0.89160156,0.8911133,0.8833008
0.30566406,0.30395508,0.30810547,0.3076172,0.3095703,0.31054688,0.31103516,0.31152344,0.31274414,0.3137207,0.3149414,0.31591797,0.31689453,0.3173828,0.31835938,0.31860352,0.31982422,0.32055664,0.32202148,0.3227539,0.3239746,0.32495117,0.32592773,0.32714844,0.32861328,0.32958984,0.3310547,0.3322754,0.3334961,0.3347168,0.3359375,0.33740234,0.3388672,0.34033203,0.34155273,0.34301758,0.34423828,0.34570312,0.3474121,0.3491211,0.3503418,0.3515625,0.35302734,0.3544922,0.35620117,0.35766602,0.359375,0.36083984,0.36254883,0.36401367,0.36572266,0.36743164,0.36914062,0.3708496,0.3725586,0.37426758,0.37597656,0.37768555,0.37939453,0.38134766,0.38330078,0.3852539,0.38720703,0.38916016,0.39135742,0.39331055,0.39501953,0.3972168,0.39916992,0.40112305,0.40307617,0.4050293,0.40722656,0.4091797,0.4111328,0.41308594,0.4152832,0.41723633,0.4194336,0.42138672,0.42382812,0.4260254,0.42822266,0.42993164,0.43139648,0.43237305,0.4326172,0.43139648,0.42993164,0.42919922,0.42871094,0.43017578,0.4309082,0.43237305,0.43481445,0.43774414,0.44067383,0.44384766,0.44677734,0.44921875,0.45214844,0.45507812,0.4572754,0.4638672,0.46850586,0.4777832,0.4897461,0.49487305,0.49829102,0.5019531,0.50390625,0.50634766,0.50878906,0.51171875,0.5151367,0.5185547,0.52246094,0.5258789,0.52978516,0.5336914,0.53759766,0.5415039,0.54541016,0.5493164,0.5527344,0.5571289,0.5605469,0.5649414,0.5683594,0.5722656,0.57666016,0.5805664,0.58447266,0.5888672,0.5932617,0.59765625,0.6020508,0.6069336,0.6113281,0.61621094,0.62060547,0.6254883,0.6298828,0.6352539,0.6401367,0.6455078,0.6503906,0.6557617,0.6611328,0.6669922,0.67285156,0.67822266,0.68408203,0.6899414,0.6958008,0.70214844,0.7080078,0.71484375,0.7211914,0.72802734,0.7348633,0.7421875,0.74902344,0.75634766,0.7636719,0.7709961,0.7788086,0.7871094,0.7944336,0.8027344,0.8105469,0.8198242,0.828125,0.83691406,0.8457031,0.85498047,0.86328125,0.8730469,0.8828125,0.8925781,0.90234375,0.9121094,0.9223633,0.9326172,0.9433594,0.95458984,0.9658203,0.97753906,0.9892578,1.0009766,1.0126953,1.0253906,1.0380859,1.0517578,1.0644531,1.078125,1.0917969,1.1074219,1.1220703,1.1376953,1.1542969,1.1708984,1.1875,1.203125,1.2197266,1.2373047,1.2558594,1.2744141,1.2929688,1.3134766,1.3320312,1.3505859,1.3691406,1.3876953,1.4072266,1.4296875,1.4482422,1.4726562,1.4921875,1.5087891,1.5263672,1.5410156,1.5615234,1.5146484,1.0166016,0.9897461,0.97753906,0.97021484,0.96484375,0.95996094,0.95654297,0.9526367,0.9501953,0.9477539,0.94433594,0.94091797,0.9379883,0.9355469,0.93310547,0.9301758,0.9272461,0.9248047,0.9223633,0.92041016,0.91796875,0.91503906,0.9121094,0.9091797,0.90625,0.9038086,0.9008789,0.8984375,0.89453125,0.8930664,0.8857422
0.3059082,0.30371094,0.30810547,0.3076172,0.3095703,0.31030273,0.31079102,0.3112793,0.31274414,0.31347656,0.31469727,0.31567383,0.31689453,0.3173828,0.31835938,0.31884766,0.31982422,0.32055664,0.32177734,0.32299805,0.32421875,0.32495117,0.32617188,0.32739258,0.32861328,0.32958984,0.3310547,0.3322754,0.3334961,0.3347168,0.3359375,0.3371582,0.33862305,0.3400879,0.34155273,0.34301758,0.34423828,0.34570312,0.34692383,0.3486328,0.34985352,0.35131836,0.3527832,0.3544922,0.35595703,0.35742188,0.35888672,0.3605957,0.36206055,0.36376953,0.36547852,0.3671875,0.36889648,0.37060547,0.37231445,0.37402344,0.37573242,0.3774414,0.37939453,0.38134766,0.38330078,0.38500977,0.3869629,0.38916016,0.39111328,0.3930664,0.39526367,0.39697266,0.39916992,0.4008789,0.40307617,0.4050293,0.40698242,0.40893555,0.41088867,0.41308594,0.41503906,0.41723633,0.4194336,0.42163086,0.42407227,0.4260254,0.42822266,0.43017578,0.43188477,0.4326172,0.4333496,0.4321289,0.4309082,0.43041992,0.42944336,0.43115234,0.43188477,0.43310547,0.43530273,0.43798828,0.44091797,0.44384766,0.44726562,0.4501953,0.45361328,0.45703125,0.4597168,0.46777344,0.47387695,0.48217773,0.49047852,0.4946289,0.49804688,0.50097656,0.5029297,0.5058594,0.5083008,0.51171875,0.5151367,0.5185547,0.52246094,0.5258789,0.52978516,0.5336914,0.53759766,0.5415039,0.5449219,0.5493164,0.5527344,0.5566406,0.5605469,0.5644531,0.5683594,0.5722656,0.57666016,0.5805664,0.58496094,0.58935547,0.5932617,0.59814453,0.60253906,0.6069336,0.6113281,0.61621094,0.62060547,0.6254883,0.6298828,0.6352539,0.6401367,0.6455078,0.6508789,0.65625,0.6616211,0.6669922,0.6723633,0.67871094,0.68408203,0.6899414,0.6958008,0.70214844,0.7084961,0.71484375,0.7216797,0.7285156,0.7348633,0.7421875,0.74902344,0.75683594,0.7636719,0.7714844,0.7792969,0.7871094,0.7949219,0.8027344,0.81152344,0.8198242,0.828125,0.83691406,0.8457031,0.85498047,0.86328125,0.8730469,0.8823242,0.8925781,0.90234375,0.91259766,0.9223633,0.9326172,0.9433594,0.95458984,0.9658203,0.9770508,0.9892578,1.0009766,1.0126953,1.0253906,1.0380859,1.0507812,1.0644531,1.078125,1.0917969,1.1074219,1.1230469,1.1386719,1.1542969,1.1708984,1.1875,1.203125,1.2197266,1.2373047,1.2558594,1.2744141,1.2939453,1.3134766,1.3320312,1.3515625,1.3691406,1.3886719,1.4082031,1.4296875,1.4501953,1.4746094,1.4941406,1.5097656,1.5273438,1.5390625,1.5595703,1.5205078,1.0283203,0.99072266,0.9790039,0.97216797,0.9667969,0.96191406,0.9580078,0.95458984,0.95214844,0.94970703,0.94677734,0.9433594,0.9404297,0.9375,0.9355469,0.9321289,0.9291992,0.9267578,0.9243164,0.9223633,0.92041016,0.91748047,0.9145508,0.9111328,0.9086914,0.90625,0.9033203,0.9003906,0.8959961,0.89453125,0.88720703
0.30566406,0.30395508,0.30810547,0.30737305,0.30932617,0.3100586,0.31079102,0.31103516,0.31225586,0.31323242,0.31445312,0.3154297,0.31689453,0.3173828,0.31835938,0.31884766,0.31982422,0.32080078,0.32202148,0.32299805,0.3244629,0.3251953,0.32641602,0.32739258,0.32885742,0.33007812,0.3310547,0.3322754,0.33374023,0.3347168,0.3359375,0.33740234,0.3388672,0.33984375,0.3413086,0.34301758,0.34423828,0.34545898,0.34692383,0.34838867,0.34985352,0.35131836,0.3527832,0.3544922,0.35595703,0.35742188,0.35864258,0.36035156,0.36206055,0.3635254,0.36523438,0.36694336,0.36865234,0.37036133,0.3720703,0.37402344,0.37573242,0.3774414,0.37939453,0.38134766,0.38330078,0.3852539,0.38720703,0.38916016,0.39086914,0.39331055,0.39501953,0.39697266,0.39916992,0.40112305,0.40307617,0.4050293,0.40698242,0.40893555,0.41088867,0.41308594,0.41503906,0.4169922,0.41918945,0.42163086,0.42382812,0.4260254,0.42822266,0.43041992,0.4321289,0.43310547,0.4338379,0.43310547,0.4321289,0.43164062,0.4309082,0.4321289,0.43286133,0.43408203,0.43579102,0.43823242,0.4411621,0.4440918,0.4477539,0.4506836,0.4543457,0.45898438,0.46313477,0.47094727,0.47851562,0.48486328,0.49023438,0.4946289,0.4970703,0.5,0.5024414,0.5053711,0.5083008,0.51171875,0.5151367,0.51904297,0.52246094,0.5258789,0.52978516,0.5332031,0.5371094,0.5410156,0.5449219,0.5488281,0.5527344,0.5566406,0.5600586,0.5644531,0.5683594,0.5727539,0.57666016,0.5810547,0.58496094,0.58935547,0.59375,0.59814453,0.60253906,0.6069336,0.6113281,0.61621094,0.62060547,0.6254883,0.6303711,0.6352539,0.640625,0.6455078,0.6508789,0.65625,0.6616211,0.66748047,0.67285156,0.67871094,0.68408203,0.6904297,0.69628906,0.7026367,0.7089844,0.71533203,0.72216797,0.7290039,0.73583984,0.7426758,0.7495117,0.75683594,0.76416016,0.77197266,0.77978516,0.7871094,0.79541016,0.80322266,0.81152344,0.8198242,0.828125,0.83691406,0.84521484,0.85498047,0.86376953,0.8730469,0.8828125,0.8925781,0.90185547,0.9116211,0.9223633,0.9326172,0.9428711,0.95458984,0.9658203,0.97753906,0.9892578,1.0009766,1.0126953,1.0253906,1.0380859,1.0507812,1.0644531,1.0791016,1.0917969,1.1074219,1.1230469,1.1386719,1.1542969,1.1708984,1.1875,1.203125,1.2197266,1.2373047,1.2568359,1.2753906,1.2939453,1.3144531,1.3330078,1.3515625,1.3691406,1.3886719,1.4091797,1.4306641,1.4511719,1.4746094,1.4951172,1.5117188,1.5283203,1.5361328,1.5556641,1.5283203,1.2900391,0.99365234,0.97998047,0.97265625,0.9682617,0.9633789,0.95996094,0.95654297,0.95410156,0.9511719,0.9482422,0.9453125,0.9428711,0.9399414,0.9379883,0.9350586,0.9321289,0.9296875,0.9267578,0.9243164,0.921875,0.9194336,0.9165039,0.9135742,0.9111328,0.9086914,0.9057617,0.90283203,0.8984375,0.89746094,0.8901367
0.30541992,0.30419922,0.3083496,0.30737305,0.30932617,0.31030273,0.31079102,0.31103516,0.3125,0.31323242,0.31469727,0.3154297,0.31689453,0.3173828,0.31835938,0.31860352,0.32006836,0.32055664,0.32226562,0.3232422,0.3244629,0.3251953,0.32617188,0.32763672,0.32910156,0.33007812,0.33129883,0.33251953,0.33374023,0.33496094,0.33618164,0.33764648,0.3388672,0.3400879,0.34155273,0.34301758,0.34423828,0.34545898,0.34716797,0.34838867,0.34985352,0.35131836,0.3527832,0.3544922,0.35595703,0.35742188,0.35888672,0.36035156,0.36206055,0.3635254,0.36523438,0.36694336,0.36865234,0.3701172,0.3720703,0.3737793,0.37573242,0.3774414,0.37939453,0.38134766,0.38330078,0.3852539,0.3869629,0.38891602,0.39111328,0.3930664,0.39501953,0.39697266,0.39892578,0.4008789,0.40283203,0.40478516,0.40673828,0.40893555,0.41088867,0.4128418,0.41479492,0.41723633,0.41918945,0.42163086,0.42382812,0.4260254,0.4284668,0.43066406,0.43237305,0.43408203,0.43481445,0.43408203,0.43310547,0.43310547,0.4321289,0.43359375,0.4338379,0.43481445,0.43652344,0.43847656,0.4416504,0.44458008,0.44799805,0.45214844,0.4555664,0.46142578,0.46679688,0.47436523,0.4819336,0.4868164,0.49072266,0.49389648,0.4963379,0.49926758,0.5019531,0.5053711,0.5083008,0.51171875,0.5151367,0.5185547,0.52246094,0.5258789,0.52978516,0.5332031,0.5371094,0.5410156,0.5449219,0.5488281,0.5522461,0.5566406,0.5600586,0.5644531,0.5683594,0.5722656,0.5761719,0.5805664,0.58496094,0.58935547,0.59375,0.59814453,0.60302734,0.6069336,0.6113281,0.61621094,0.62060547,0.6254883,0.6303711,0.6352539,0.640625,0.6459961,0.6508789,0.6567383,0.6621094,0.66748047,0.67285156,0.67871094,0.6845703,0.6904297,0.69628906,0.703125,0.7089844,0.7158203,0.72216797,0.7294922,0.7363281,0.74316406,0.75,0.7573242,0.76464844,0.77246094,0.77978516,0.78759766,0.79541016,0.80371094,0.8120117,0.8203125,0.8286133,0.83740234,0.8457031,0.85498047,0.86376953,0.87353516,0.8828125,0.8925781,0.90185547,0.9121094,0.9223633,0.9326172,0.9433594,0.95458984,0.9663086,0.97753906,0.98876953,1.0009766,1.0126953,1.0253906,1.0380859,1.0507812,1.0644531,1.078125,1.0927734,1.1074219,1.1230469,1.1386719,1.1542969,1.1699219,1.1875,1.203125,1.2197266,1.2373047,1.2568359,1.2753906,1.2949219,1.3144531,1.3330078,1.3525391,1.3691406,1.3896484,1.4101562,1.4316406,1.4521484,1.4755859,1.4970703,1.5146484,1.5292969,1.5361328,1.5546875,1.5390625,1.4296875,0.9946289,0.9814453,0.9746094,0.97021484,0.9658203,0.96191406,0.9584961,0.9555664,0.9536133,0.9506836,0.9477539,0.9448242,0.94189453,0.9399414,0.9375,0.9345703,0.9321289,0.9296875,0.9267578,0.9243164,0.9213867,0.91845703,0.91552734,0.91308594,0.9111328,0.9082031,0.90527344,0.9013672,0.8989258,0.8930664
0.3059082,0.30395508,0.30810547,0.30737305,0.30908203,0.3100586,0.31054688,0.31079102,0.31225586,0.31298828,0.31420898,0.31518555,0.3166504,0.31713867,0.31811523,0.31860352,0.31982422,0.32080078,0.32202148,0.32299805,0.32421875,0.3251953,0.32666016,0.32788086,0.32910156,0.33007812,0.33129883,0.3322754,0.3334961,0.3347168,0.3359375,0.33740234,0.3388672,0.3400879,0.3413086,0.34277344,0.34423828,0.34545898,0.34692383,0.34838867,0.34985352,0.35131836,0.3527832,0.35424805,0.3557129,0.35717773,0.35864258,0.36035156,0.3618164,0.3635254,0.36499023,0.36669922,0.36816406,0.3701172,0.37182617,0.3737793,0.37548828,0.3774414,0.37939453,0.38134766,0.38305664,0.38476562,0.3869629,0.38891602,0.39086914,0.3930664,0.39501953,0.39697266,0.39892578,0.4008789,0.40283203,0.40478516,0.40673828,0.4086914,0.4104004,0.4128418,0.41479492,0.4169922,0.4194336,0.42163086,0.42382812,0.42578125,0.4284668,0.43041992,0.4326172,0.4345703,0.43554688,0.43554688,0.4350586,0.43481445,0.4338379,0.43481445,0.43481445,0.43579102,0.43725586,0.43920898,0.44213867,0.4453125,0.4489746,0.45361328,0.45751953,0.4638672,0.47045898,0.47680664,0.48339844,0.48706055,0.49023438,0.49365234,0.49560547,0.49853516,0.5019531,0.5053711,0.5083008,0.51171875,0.51464844,0.5185547,0.52246094,0.5258789,0.52978516,0.5332031,0.5371094,0.5410156,0.5449219,0.5488281,0.5527344,0.5566406,0.5605469,0.5644531,0.5683594,0.5727539,0.57666016,0.5805664,0.5854492,0.58984375,0.59375,0.5986328,0.60302734,0.6074219,0.6118164,0.61621094,0.62060547,0.6254883,0.6303711,0.6357422,0.640625,0.6459961,0.6508789,0.6567383,0.6621094,0.66796875,0.67285156,0.6791992,0.6845703,0.69091797,0.69677734,0.703125,0.70947266,0.7163086,0.72265625,0.7294922,0.7363281,0.74316406,0.75,0.7578125,0.7651367,0.77246094,0.78027344,0.78808594,0.79541016,0.80371094,0.8120117,0.8203125,0.8286133,0.83740234,0.8457031,0.85498047,0.8642578,0.87353516,0.8828125,0.8925781,0.90234375,0.9121094,0.9223633,0.93310547,0.9433594,0.9550781,0.9663086,0.97753906,0.98876953,1.0009766,1.0126953,1.0253906,1.0380859,1.0517578,1.0644531,1.0791016,1.0927734,1.1074219,1.1230469,1.1386719,1.1542969,1.1708984,1.1865234,1.203125,1.2207031,1.2382812,1.2568359,1.2763672,1.2958984,1.3154297,1.3330078,1.3515625,1.3701172,1.3896484,1.4101562,1.4326172,1.453125,1.4775391,1.4980469,1.5175781,1.53125,1.5371094,1.5546875,1.5390625,1.4892578,0.99316406,0.98291016,0.9760742,0.9716797,0.9667969,0.9633789,0.9604492,0.95751953,0.9550781,0.9526367,0.94921875,0.94677734,0.9448242,0.9423828,0.9394531,0.9370117,0.9345703,0.9316406,0.9291992,0.92626953,0.9238281,0.92041016,0.91796875,0.91552734,0.91308594,0.91015625,0.90722656,0.9033203,0.9008789,0.8955078
0.30615234,0.30419922,0.30810547,0.30737305,0.30908203,0.30981445,0.31030273,0.31079102,0.31225586,0.31274414,0.31420898,0.31518555,0.3166504,0.3173828,0.31811523,0.31860352,0.32006836,0.32080078,0.32226562,0.3232422,0.3244629,0.3256836,0.32666016,0.32788086,0.32910156,0.33007812,0.33129883,0.33251953,0.33374023,0.3347168,0.3359375,0.3371582,0.33862305,0.33984375,0.3413086,0.34277344,0.34399414,0.34545898,0.34692383,0.34838867,0.34985352,0.35131836,0.3527832,0.35424805,0.35546875,0.35717773,0.35864258,0.36010742,0.3618164,0.36328125,0.3647461,0.36645508,0.36791992,0.36987305,0.37158203,0.37353516,0.37548828,0.3774414,0.37939453,0.38110352,0.3828125,0.38500977,0.3869629,0.38891602,0.39111328,0.3930664,0.39501953,0.39697266,0.39868164,0.40063477,0.4025879,0.40454102,0.40649414,0.40844727,0.4104004,0.41259766,0.41479492,0.4169922,0.4189453,0.42163086,0.42358398,0.42578125,0.42822266,0.43041992,0.43286133,0.43530273,0.43652344,0.43701172,0.43701172,0.43652344,0.43530273,0.43603516,0.4362793,0.43701172,0.4387207,0.44067383,0.44335938,0.4465332,0.44995117,0.45483398,0.45922852,0.46655273,0.4741211,0.47924805,0.48388672,0.48706055,0.4897461,0.49291992,0.49536133,0.49853516,0.50146484,0.5053711,0.5083008,0.51123047,0.5151367,0.51904297,0.52197266,0.5258789,0.5292969,0.5332031,0.5366211,0.5410156,0.5449219,0.5488281,0.5527344,0.5566406,0.5605469,0.5644531,0.56884766,0.5727539,0.57666016,0.5810547,0.5854492,0.58984375,0.59375,0.59814453,0.60253906,0.6074219,0.6118164,0.61621094,0.62060547,0.62597656,0.6303711,0.6357422,0.640625,0.6459961,0.6513672,0.6567383,0.6621094,0.66796875,0.67333984,0.67871094,0.6850586,0.69091797,0.69677734,0.703125,0.70996094,0.7163086,0.72314453,0.72998047,0.7363281,0.74365234,0.7504883,0.7578125,0.7651367,0.7729492,0.78027344,0.78808594,0.79589844,0.80371094,0.8120117,0.8203125,0.8286133,0.83740234,0.8457031,0.85498047,0.8642578,0.87353516,0.8828125,0.8925781,0.90234375,0.91259766,0.92285156,0.93310547,0.9433594,0.9550781,0.9663086,0.97753906,0.98876953,1.0009766,1.0126953,1.0253906,1.0371094,1.0507812,1.0644531,1.0791016,1.0927734,1.1074219,1.1230469,1.1386719,1.1542969,1.1699219,1.1865234,1.203125,1.2207031,1.2392578,1.2578125,1.2763672,1.2958984,1.3154297,1.3339844,1.3525391,1.3701172,1.390625,1.4111328,1.4326172,1.4541016,1.4785156,1.5,1.5195312,1.5322266,1.5390625,1.5537109,1.5410156,1.5234375,0.99609375,0.9848633,0.97802734,0.9736328,0.96875,0.96533203,0.96240234,0.95947266,0.95751953,0.95410156,0.9511719,0.94873047,0.94677734,0.9448242,0.94140625,0.9394531,0.93652344,0.93359375,0.93115234,0.92871094,0.92578125,0.92285156,0.92041016,0.91796875,0.91552734,0.91259766,0.9091797,0.90527344,0.90283203,0.8979492
0.30615234,0.30395508,0.30786133,0.3071289,0.30859375,0.3095703,0.31030273,0.31079102,0.31225586,0.31274414,0.31420898,0.31518555,0.3166504,0.3173828,0.31811523,0.31884766,0.32006836,0.32104492,0.32226562,0.32348633,0.32470703,0.3256836,0.3269043,0.32788086,0.32910156,0.33007812,0.33129883,0.33251953,0.33374023,0.3347168,0.33569336,0.3371582,0.33862305,0.33984375,0.3413086,0.3425293,0.34399414,0.34545898,0.34692383,0.34838867,0.34985352,0.35107422,0.35253906,0.35424805,0.35546875,0.3569336,0.35839844,0.36010742,0.36157227,0.3630371,0.36450195,0.36645508,0.36791992,0.36987305,0.37158203,0.37353516,0.37573242,0.3774414,0.3791504,0.38085938,0.38330078,0.38500977,0.3869629,0.38916016,0.39086914,0.3930664,0.39501953,0.39672852,0.3984375,0.40039062,0.40234375,0.40454102,0.40625,0.40844727,0.4104004,0.41259766,0.41455078,0.41674805,0.4189453,0.42138672,0.42358398,0.42578125,0.42822266,0.43066406,0.43310547,0.43530273,0.43701172,0.43774414,0.43847656,0.43847656,0.4375,0.43823242,0.43896484,0.43969727,0.44091797,0.4428711,0.4453125,0.44873047,0.4519043,0.45654297,0.4609375,0.46875,0.47631836,0.4802246,0.48388672,0.4868164,0.4892578,0.49194336,0.49487305,0.49804688,0.50146484,0.5048828,0.5083008,0.51171875,0.5151367,0.5185547,0.52197266,0.5258789,0.5292969,0.5332031,0.5366211,0.54052734,0.5449219,0.54833984,0.5527344,0.5566406,0.5605469,0.5649414,0.56884766,0.5727539,0.57666016,0.5810547,0.5854492,0.58984375,0.5942383,0.5986328,0.60302734,0.6074219,0.6118164,0.61621094,0.62109375,0.62597656,0.6308594,0.6357422,0.6411133,0.6459961,0.6513672,0.6567383,0.6621094,0.66796875,0.67333984,0.6791992,0.6850586,0.69140625,0.6972656,0.7036133,0.7104492,0.7167969,0.72314453,0.72998047,0.7368164,0.7441406,0.75097656,0.7583008,0.7651367,0.7729492,0.78027344,0.7885742,0.79589844,0.8041992,0.8120117,0.8208008,0.8286133,0.83740234,0.8457031,0.85498047,0.8642578,0.8730469,0.8828125,0.8930664,0.90234375,0.91259766,0.92285156,0.9326172,0.9433594,0.9550781,0.9658203,0.97753906,0.98876953,1.0009766,1.0126953,1.0253906,1.0371094,1.0517578,1.0644531,1.0791016,1.0927734,1.1074219,1.1230469,1.1386719,1.1542969,1.1699219,1.1865234,1.203125,1.2207031,1.2392578,1.2587891,1.2773438,1.2958984,1.3154297,1.3339844,1.3525391,1.3710938,1.3916016,1.4121094,1.4335938,1.4550781,1.4794922,1.5,1.5214844,1.5341797,1.5410156,1.5537109,1.5546875,1.5380859,1.0,0.9873047,0.97998047,0.97509766,0.9707031,0.9667969,0.9638672,0.9609375,0.9589844,0.9555664,0.9526367,0.9501953,0.9482422,0.94677734,0.9433594,0.94140625,0.93847656,0.93603516,0.93359375,0.93066406,0.92822266,0.92529297,0.92285156,0.9199219,0.91748047,0.91503906,0.9116211,0.90722656,0.90527344,0.89990234
0.30639648,0.30395508,0.30810547,0.30688477,0.3088379,0.30981445,0.31030273,0.31079102,0.31225586,0.31298828,0.31445312,0.3154297,0.31689453,0.3173828,0.31835938,0.31884766,0.32006836,0.32104492,0.32250977,0.3232422,0.32470703,0.3256836,0.3269043,0.328125,0.32910156,0.33007812,0.33129883,0.33251953,0.3334961,0.33447266,0.3359375,0.3371582,0.3383789,0.33984375,0.3413086,0.3425293,0.34399414,0.34545898,0.3466797,0.34814453,0.34960938,0.35107422,0.35253906,0.35375977,0.3552246,0.35668945,0.3581543,0.35961914,0.36108398,0.36279297,0.3642578,0.36621094,0.36791992,0.3696289,0.37182617,0.37353516,0.37548828,0.37719727,0.37890625,0.38110352,0.38305664,0.38500977,0.3869629,0.38891602,0.390625,0.39282227,0.3947754,0.39648438,0.3984375,0.40039062,0.40234375,0.40454102,0.40649414,0.40844727,0.4104004,0.41259766,0.41455078,0.41674805,0.4189453,0.42138672,0.42358398,0.42578125,0.42822266,0.43041992,0.43310547,0.43530273,0.4375,0.43920898,0.43969727,0.44018555,0.43969727,0.44018555,0.44067383,0.44140625,0.44262695,0.44458008,0.44677734,0.4501953,0.45410156,0.45874023,0.4633789,0.47094727,0.4777832,0.4807129,0.48388672,0.48657227,0.48876953,0.49169922,0.4946289,0.49804688,0.50097656,0.5048828,0.5083008,0.51123047,0.5151367,0.5185547,0.52197266,0.5253906,0.5292969,0.53271484,0.5366211,0.54052734,0.5444336,0.5488281,0.5527344,0.5566406,0.5605469,0.5644531,0.56884766,0.5732422,0.57714844,0.58154297,0.5854492,0.59033203,0.5942383,0.5986328,0.60302734,0.6074219,0.6118164,0.6166992,0.62109375,0.62597656,0.6308594,0.6357422,0.6411133,0.6459961,0.6513672,0.6567383,0.66259766,0.66796875,0.6738281,0.6796875,0.6855469,0.69140625,0.6972656,0.70410156,0.7104492,0.7167969,0.7236328,0.73046875,0.7368164,0.7441406,0.75146484,0.7583008,0.765625,0.7729492,0.78027344,0.7885742,0.79589844,0.80371094,0.8120117,0.8208008,0.8286133,0.83740234,0.8461914,0.85498047,0.86376953,0.87353516,0.8828125,0.8930664,0.90234375,0.91259766,0.92285156,0.93310547,0.94384766,0.9550781,0.9663086,0.97753906,0.98876953,1.0009766,1.0126953,1.0244141,1.0371094,1.0507812,1.0644531,1.078125,1.0927734,1.1083984,1.1240234,1.1386719,1.1542969,1.1708984,1.1865234,1.203125,1.2207031,1.2402344,1.2587891,1.2773438,1.2958984,1.3154297,1.3330078,1.3525391,1.3710938,1.3925781,1.4130859,1.4345703,1.4550781,1.4804688,1.5009766,1.5214844,1.5351562,1.5419922,1.5556641,1.5644531,1.5419922,1.0078125,0.9897461,0.9824219,0.9770508,0.97216797,0.9692383,0.9658203,0.9633789,0.9609375,0.95751953,0.95458984,0.95214844,0.9501953,0.94873047,0.9458008,0.9433594,0.9404297,0.9379883,0.93603516,0.93310547,0.9301758,0.9277344,0.9248047,0.9223633,0.9199219,0.9169922,0.9140625,0.91015625,0.90722656,0.90234375
0.30615234,0.30371094,0.30786133,0.30688477,0.3088379,0.3095703,0.31054688,0.31079102,0.3125,0.31323242,0.31445312,0.31567383,0.31713867,0.31762695,0.31860352,0.31884766,0.32006836,0.32104492,0.32226562,0.32348633,0.32470703,0.3256836,0.32666016,0.32788086,0.32910156,0.33007812,0.33129883,0.3322754,0.3334961,0.33447266,0.33569336,0.3371582,0.33862305,0.3395996,0.34106445,0.3425293,0.34399414,0.34545898,0.3466797,0.34814453,0.34936523,0.35083008,0.35229492,0.35375977,0.3552246,0.3564453,0.35791016,0.359375,0.36083984,0.36254883,0.3642578,0.36621094,0.36791992,0.36987305,0.37158203,0.37353516,0.37524414,0.37719727,0.3791504,0.38110352,0.38330078,0.38500977,0.3869629,0.38891602,0.39086914,0.39257812,0.39453125,0.39648438,0.39819336,0.40039062,0.40234375,0.40429688,0.40625,0.40844727,0.4104004,0.41259766,0.41455078,0.41674805,0.4189453,0.42138672,0.42333984,0.4255371,0.42797852,0.43041992,0.43286133,0.43530273,0.43774414,0.43969727,0.44067383,0.4416504,0.4423828,0.44360352,0.4440918,0.44482422,0.44555664,0.44726562,0.4494629,0.45288086,0.45654297,0.46118164,0.46679688,0.47265625,0.4777832,0.4807129,0.4831543,0.48608398,0.48828125,0.49145508,0.4946289,0.4975586,0.50097656,0.50439453,0.5078125,0.51123047,0.51464844,0.5180664,0.52197266,0.5253906,0.5288086,0.53271484,0.5366211,0.54052734,0.5444336,0.5488281,0.5527344,0.5566406,0.5605469,0.5644531,0.56884766,0.5732422,0.57714844,0.58154297,0.5854492,0.58984375,0.5942383,0.5986328,0.60302734,0.6074219,0.6118164,0.6166992,0.62109375,0.62597656,0.6303711,0.6357422,0.6411133,0.6464844,0.6513672,0.65722656,0.66259766,0.66796875,0.6738281,0.6796875,0.6855469,0.69140625,0.6977539,0.70410156,0.7104492,0.7167969,0.7236328,0.72998047,0.7373047,0.7441406,0.75146484,0.7583008,0.765625,0.7729492,0.7807617,0.7885742,0.79589844,0.8041992,0.8120117,0.8203125,0.8286133,0.83740234,0.8461914,0.85498047,0.86376953,0.87353516,0.8833008,0.8925781,0.90234375,0.91308594,0.9223633,0.93359375,0.94433594,0.9555664,0.9667969,0.97753906,0.98876953,1.0,1.0117188,1.0244141,1.0371094,1.0507812,1.0654297,1.0791016,1.0927734,1.1074219,1.1230469,1.1386719,1.1542969,1.1708984,1.1875,1.2041016,1.2216797,1.2402344,1.2587891,1.2773438,1.296875,1.3154297,1.3339844,1.3525391,1.3720703,1.3935547,1.4140625,1.4355469,1.4560547,1.4804688,1.5,1.5205078,1.5341797,1.5439453,1.5576172,1.578125,1.5419922,1.1201172,0.99316406,0.9838867,0.9785156,0.9741211,0.97021484,0.96777344,0.96533203,0.96240234,0.95947266,0.95654297,0.95458984,0.95214844,0.9501953,0.9477539,0.9453125,0.9428711,0.9404297,0.9379883,0.93603516,0.93310547,0.9301758,0.9272461,0.9243164,0.921875,0.9194336,0.9165039,0.91259766,0.9091797,0.9042969
0.30615234,0.3034668,0.30786133,0.30688477,0.30810547,0.30932617,0.31030273,0.31079102,0.31225586,0.31323242,0.31469727,0.31591797,0.31713867,0.3178711,0.31860352,0.31860352,0.32006836,0.32104492,0.32226562,0.3232422,0.32495117,0.3256836,0.3269043,0.32788086,0.32910156,0.33007812,0.33129883,0.3322754,0.3334961,0.33447266,0.3359375,0.3371582,0.3383789,0.3395996,0.34106445,0.3425293,0.34375,0.34545898,0.3466797,0.3479004,0.34936523,0.35083008,0.35205078,0.35351562,0.35498047,0.35620117,0.35766602,0.35913086,0.3605957,0.3623047,0.3642578,0.36621094,0.36791992,0.36987305,0.37158203,0.37329102,0.37548828,0.3774414,0.3791504,0.38110352,0.38305664,0.38500977,0.38671875,0.38867188,0.390625,0.39233398,0.3942871,0.39624023,0.39819336,0.40014648,0.4020996,0.40405273,0.40625,0.40820312,0.41015625,0.41235352,0.41455078,0.41674805,0.4189453,0.42114258,0.42333984,0.4255371,0.42797852,0.43017578,0.43286133,0.43530273,0.43798828,0.44018555,0.4416504,0.44360352,0.44458008,0.44604492,0.44750977,0.4482422,0.4489746,0.45043945,0.45214844,0.4555664,0.45996094,0.46533203,0.4699707,0.47387695,0.47753906,0.48046875,0.48291016,0.4855957,0.4880371,0.49145508,0.49438477,0.49731445,0.5004883,0.50439453,0.5078125,0.51123047,0.51464844,0.5180664,0.5214844,0.5253906,0.5288086,0.53271484,0.5361328,0.54052734,0.5444336,0.54833984,0.5527344,0.5566406,0.5605469,0.5644531,0.56884766,0.5732422,0.5776367,0.58154297,0.5854492,0.58984375,0.5942383,0.5991211,0.60302734,0.6074219,0.6118164,0.6166992,0.62109375,0.62597656,0.6308594,0.63623047,0.6411133,0.6464844,0.65185547,0.65722656,0.66259766,0.66845703,0.6738281,0.6801758,0.6855469,0.69140625,0.6977539,0.70410156,0.7104492,0.71728516,0.7236328,0.73046875,0.7373047,0.7446289,0.75146484,0.75878906,0.765625,0.7734375,0.7807617,0.7885742,0.79589844,0.8041992,0.8120117,0.8208008,0.8286133,0.83740234,0.8457031,0.85498047,0.8642578,0.87353516,0.8833008,0.8930664,0.90234375,0.91259766,0.92285156,0.93359375,0.94433594,0.9555664,0.9667969,0.97753906,0.98828125,1.0,1.0126953,1.0253906,1.0380859,1.0517578,1.0644531,1.078125,1.0927734,1.1074219,1.1230469,1.1386719,1.1542969,1.1708984,1.1875,1.2050781,1.2216797,1.2402344,1.2587891,1.2783203,1.2958984,1.3154297,1.3339844,1.3525391,1.3720703,1.3935547,1.4150391,1.4355469,1.4560547,1.4804688,1.5,1.5195312,1.5332031,1.5478516,1.5605469,1.5839844,1.5585938,1.4873047,0.99609375,0.98779297,0.98095703,0.97558594,0.9716797,0.9692383,0.9667969,0.96435547,0.9614258,0.9584961,0.95654297,0.95410156,0.9526367,0.94970703,0.9472656,0.9453125,0.9423828,0.9404297,0.9379883,0.9350586,0.9326172,0.9296875,0.9267578,0.9243164,0.9213867,0.91845703,0.9140625,0.9116211,0.90625
0.3059082,0.3034668,0.3076172,0.30615234,0.3083496,0.30908203,0.3100586,0.31079102,0.3125,0.31323242,0.31469727,0.31567383,0.31713867,0.31762695,0.31835938,0.31884766,0.32006836,0.32080078,0.32226562,0.32348633,0.32470703,0.32543945,0.32666016,0.32788086,0.32910156,0.33007812,0.33129883,0.3322754,0.3334961,0.33447266,0.33569336,0.3371582,0.3383789,0.3395996,0.34106445,0.3425293,0.34375,0.3449707,0.34643555,0.3479004,0.34936523,0.35058594,0.35205078,0.35327148,0.35473633,0.35620117,0.35766602,0.35913086,0.36083984,0.36254883,0.3642578,0.36645508,0.36816406,0.3696289,0.37158203,0.3737793,0.37524414,0.37719727,0.3791504,0.38110352,0.3828125,0.38476562,0.3864746,0.38842773,0.39013672,0.3918457,0.39379883,0.3959961,0.39794922,0.39990234,0.40185547,0.4038086,0.40600586,0.40795898,0.41015625,0.41235352,0.41430664,0.41674805,0.4189453,0.42114258,0.42333984,0.42529297,0.42797852,0.42993164,0.4326172,0.4350586,0.43725586,0.4399414,0.44189453,0.44384766,0.44555664,0.44750977,0.44921875,0.4506836,0.45239258,0.45507812,0.4567871,0.4597168,0.46362305,0.46704102,0.4716797,0.47509766,0.47705078,0.4802246,0.48242188,0.48510742,0.48779297,0.49121094,0.49414062,0.49731445,0.5004883,0.50439453,0.5073242,0.5107422,0.51464844,0.5180664,0.5214844,0.5253906,0.5288086,0.53271484,0.5366211,0.54052734,0.5444336,0.54833984,0.5527344,0.5566406,0.56103516,0.5649414,0.56884766,0.5732422,0.5776367,0.58154297,0.5859375,0.58984375,0.5942383,0.5991211,0.60302734,0.6074219,0.6118164,0.6166992,0.62109375,0.62646484,0.6308594,0.63623047,0.6411133,0.6464844,0.65185547,0.65722656,0.66259766,0.66845703,0.6743164,0.6801758,0.68603516,0.69189453,0.6977539,0.70458984,0.7109375,0.71728516,0.7241211,0.73095703,0.73779297,0.7451172,0.75146484,0.75927734,0.7661133,0.7739258,0.78125,0.7890625,0.7963867,0.8041992,0.8125,0.8208008,0.82910156,0.83740234,0.8461914,0.85546875,0.8647461,0.8745117,0.88378906,0.8935547,0.90283203,0.91308594,0.92333984,0.93408203,0.9448242,0.9555664,0.9663086,0.97753906,0.98828125,1.0009766,1.0126953,1.0253906,1.0380859,1.0517578,1.0644531,1.0791016,1.0927734,1.1074219,1.1230469,1.1386719,1.1542969,1.1708984,1.1884766,1.2050781,1.2216797,1.2412109,1.2597656,1.2783203,1.296875,1.3164062,1.3339844,1.3535156,1.3730469,1.3945312,1.4150391,1.4365234,1.4560547,1.4794922,1.4990234,1.5185547,1.5332031,1.5498047,1.5615234,1.5800781,1.5703125,1.5458984,1.0019531,0.9902344,0.98339844,0.97753906,0.97314453,0.9707031,0.96875,0.9658203,0.9628906,0.9604492,0.9584961,0.95654297,0.95458984,0.9511719,0.94921875,0.9472656,0.9448242,0.9423828,0.9404297,0.9375,0.9345703,0.9316406,0.92871094,0.92626953,0.92333984,0.92089844,0.9169922,0.9145508,0.9091797
0.3059082,0.30273438,0.30688477,0.3059082,0.30786133,0.30859375,0.30981445,0.31030273,0.31201172,0.31298828,0.31469727,0.31567383,0.31689453,0.31762695,0.31835938,0.31860352,0.31982422,0.32080078,0.32226562,0.3232422,0.3244629,0.32543945,0.32666016,0.32763672,0.32885742,0.33007812,0.3310547,0.33203125,0.33325195,0.33422852,0.33544922,0.33691406,0.3383789,0.3395996,0.34106445,0.34228516,0.34350586,0.3449707,0.34643555,0.34765625,0.3491211,0.35058594,0.35180664,0.35302734,0.3544922,0.35595703,0.35742188,0.35913086,0.3605957,0.36254883,0.36450195,0.36621094,0.36767578,0.36987305,0.37182617,0.37353516,0.37548828,0.37719727,0.37890625,0.38085938,0.3828125,0.38476562,0.3864746,0.3881836,0.38989258,0.3918457,0.39379883,0.39575195,0.39770508,0.3996582,0.40161133,0.40356445,0.40576172,0.40795898,0.41015625,0.41210938,0.41430664,0.4165039,0.41870117,0.42089844,0.4230957,0.42529297,0.42749023,0.42993164,0.43237305,0.43481445,0.4375,0.43969727,0.44213867,0.44433594,0.44628906,0.4489746,0.4506836,0.453125,0.4555664,0.45874023,0.46044922,0.46313477,0.46655273,0.46875,0.4716797,0.47436523,0.4765625,0.47973633,0.48217773,0.48510742,0.48779297,0.49072266,0.49389648,0.4970703,0.5,0.50390625,0.5073242,0.5107422,0.51416016,0.5180664,0.5214844,0.5253906,0.5292969,0.53271484,0.5366211,0.54052734,0.5444336,0.5488281,0.5527344,0.5566406,0.56103516,0.5654297,0.56933594,0.57373047,0.5776367,0.58154297,0.5859375,0.59033203,0.59472656,0.5991211,0.60302734,0.60791016,0.6123047,0.6171875,0.62158203,0.62646484,0.6308594,0.63623047,0.64160156,0.64697266,0.65185547,0.65771484,0.66308594,0.66845703,0.6743164,0.6801758,0.68603516,0.6923828,0.6982422,0.70458984,0.7109375,0.71777344,0.7241211,0.73095703,0.73828125,0.7451172,0.7524414,0.75927734,0.76660156,0.7739258,0.7817383,0.7895508,0.796875,0.8046875,0.8129883,0.82128906,0.82910156,0.8378906,0.8461914,0.85546875,0.8647461,0.8745117,0.88378906,0.89404297,0.9033203,0.91308594,0.92333984,0.93408203,0.94433594,0.9555664,0.9667969,0.97753906,0.98828125,1.0,1.0126953,1.0253906,1.0380859,1.0517578,1.0654297,1.0791016,1.0927734,1.1074219,1.1240234,1.1386719,1.1552734,1.171875,1.1884766,1.2060547,1.2226562,1.2412109,1.2597656,1.2792969,1.296875,1.3164062,1.3339844,1.3535156,1.3730469,1.3945312,1.4160156,1.4365234,1.4560547,1.4794922,1.4980469,1.5175781,1.5332031,1.5507812,1.5615234,1.5742188,1.5791016,1.5625,1.0136719,0.9946289,0.98583984,0.97998047,0.97509766,0.97265625,0.9707031,0.96777344,0.96484375,0.96240234,0.95996094,0.9580078,0.9560547,0.9536133,0.9511719,0.94921875,0.9472656,0.9448242,0.9423828,0.9399414,0.9370117,0.93359375,0.93066406,0.92871094,0.92578125,0.9238281,0.9199219,0.91748047,0.9111328
0.30444336,0.30200195,0.30664062,0.30541992,0.30737305,0.3083496,0.30932617,0.3100586,0.31176758,0.31274414,0.31420898,0.3154297,0.31689453,0.3173828,0.31835938,0.31860352,0.31958008,0.32080078,0.32226562,0.3232422,0.32470703,0.32543945,0.32666016,0.32763672,0.32885742,0.32983398,0.33081055,0.3317871,0.33325195,0.33422852,0.33544922,0.33691406,0.3383789,0.33935547,0.3408203,0.34228516,0.34350586,0.34472656,0.3461914,0.34765625,0.3491211,0.3503418,0.35180664,0.35302734,0.35424805,0.3557129,0.35742188,0.35913086,0.36083984,0.36279297,0.36450195,0.3659668,0.36816406,0.3701172,0.37182617,0.3737793,0.37524414,0.37719727,0.37890625,0.38085938,0.38256836,0.38452148,0.38623047,0.38793945,0.39013672,0.39160156,0.3935547,0.3955078,0.39746094,0.3996582,0.4013672,0.40356445,0.40551758,0.40771484,0.40966797,0.41210938,0.4140625,0.41625977,0.41845703,0.42089844,0.4230957,0.42504883,0.4272461,0.42944336,0.4321289,0.4345703,0.43701172,0.43920898,0.4416504,0.44433594,0.4465332,0.44873047,0.4506836,0.453125,0.45532227,0.4580078,0.46020508,0.46264648,0.4658203,0.46875,0.47094727,0.4741211,0.47631836,0.4790039,0.4819336,0.48461914,0.4873047,0.49072266,0.49365234,0.49682617,0.5,0.50341797,0.5073242,0.5107422,0.51416016,0.5180664,0.5214844,0.5253906,0.5288086,0.5332031,0.5371094,0.5410156,0.5449219,0.5488281,0.5527344,0.5566406,0.56103516,0.5654297,0.56933594,0.5732422,0.5776367,0.58203125,0.5859375,0.59033203,0.59472656,0.5991211,0.6035156,0.60791016,0.6123047,0.6171875,0.62158203,0.62646484,0.6308594,0.63623047,0.64160156,0.64697266,0.65185547,0.65771484,0.66308594,0.6689453,0.6748047,0.6801758,0.68652344,0.6923828,0.69873047,0.7050781,0.7114258,0.71777344,0.7246094,0.7314453,0.73828125,0.74560547,0.7524414,0.7597656,0.76660156,0.77441406,0.7817383,0.79003906,0.7973633,0.8051758,0.81347656,0.82128906,0.82958984,0.8383789,0.8466797,0.85595703,0.8647461,0.8745117,0.88427734,0.89404297,0.9033203,0.9135742,0.92333984,0.9345703,0.9448242,0.9560547,0.9667969,0.97802734,0.98828125,1.0,1.0117188,1.0253906,1.0380859,1.0517578,1.0654297,1.0791016,1.0917969,1.1074219,1.1230469,1.1396484,1.1552734,1.171875,1.1884766,1.2060547,1.2236328,1.2421875,1.2607422,1.2792969,1.2978516,1.3164062,1.3349609,1.3544922,1.3740234,1.3945312,1.4160156,1.4375,1.4570312,1.4785156,1.4980469,1.5175781,1.5322266,1.5507812,1.5605469,1.5712891,1.5791016,1.5722656,1.0185547,0.9970703,0.9873047,0.98095703,0.9765625,0.9746094,0.97265625,0.9692383,0.9667969,0.9638672,0.9614258,0.95947266,0.9580078,0.9550781,0.953125,0.9511719,0.94921875,0.94677734,0.9448242,0.94189453,0.93847656,0.93603516,0.93310547,0.93066406,0.92822266,0.92626953,0.9223633,0.92041016,0.9140625
0.30517578,0.3022461,0.30615234,0.30541992,0.30737305,0.3083496,0.30932617,0.30981445,0.31152344,0.3125,0.31420898,0.31518555,0.31640625,0.31713867,0.3178711,0.31835938,0.31958008,0.32055664,0.32202148,0.32299805,0.3244629,0.32543945,0.32666016,0.32763672,0.32885742,0.32958984,0.33081055,0.33203125,0.33325195,0.33422852,0.33544922,0.33691406,0.33789062,0.33911133,0.34057617,0.34204102,0.34326172,0.34472656,0.3461914,0.3474121,0.34887695,0.3503418,0.3515625,0.3527832,0.3540039,0.3557129,0.35742188,0.359375,0.36132812,0.36254883,0.36450195,0.36645508,0.36816406,0.3701172,0.37182617,0.37353516,0.37524414,0.37695312,0.3786621,0.38061523,0.38232422,0.38427734,0.38598633,0.38793945,0.3894043,0.39135742,0.39331055,0.39501953,0.3972168,0.39916992,0.4013672,0.4033203,0.40551758,0.4074707,0.40966797,0.4116211,0.41381836,0.41601562,0.4182129,0.4206543,0.42260742,0.4248047,0.42700195,0.42919922,0.43164062,0.4338379,0.43652344,0.43896484,0.44140625,0.44384766,0.44604492,0.44848633,0.4506836,0.45288086,0.45532227,0.45776367,0.45996094,0.46264648,0.46557617,0.46875,0.47070312,0.4736328,0.47607422,0.47851562,0.48168945,0.48413086,0.48706055,0.49072266,0.49365234,0.49682617,0.5,0.50390625,0.5073242,0.5107422,0.51416016,0.5180664,0.5214844,0.5253906,0.5292969,0.53271484,0.5366211,0.5410156,0.5449219,0.5488281,0.5527344,0.5571289,0.56103516,0.5654297,0.56933594,0.5732422,0.5776367,0.58203125,0.5859375,0.59033203,0.59472656,0.5991211,0.6035156,0.60839844,0.6123047,0.6171875,0.6220703,0.6269531,0.63134766,0.63671875,0.64208984,0.64697266,0.65234375,0.65771484,0.6635742,0.6694336,0.6748047,0.68066406,0.68652344,0.6928711,0.69873047,0.7055664,0.7114258,0.7182617,0.72509766,0.7319336,0.73876953,0.74609375,0.7524414,0.7597656,0.76708984,0.77490234,0.78222656,0.79003906,0.7973633,0.80566406,0.81347656,0.82177734,0.82958984,0.8383789,0.84716797,0.85595703,0.8652344,0.875,0.88378906,0.8935547,0.9033203,0.91308594,0.9238281,0.9345703,0.9448242,0.9560547,0.96728516,0.97802734,0.98876953,1.0,1.0126953,1.0253906,1.0371094,1.0517578,1.0654297,1.0791016,1.0927734,1.1074219,1.1230469,1.1396484,1.15625,1.1728516,1.1894531,1.2070312,1.2236328,1.2421875,1.2607422,1.2792969,1.296875,1.3164062,1.3349609,1.3544922,1.3740234,1.3955078,1.4160156,1.4375,1.4570312,1.4794922,1.4980469,1.5166016,1.53125,1.5507812,1.5605469,1.5693359,1.5810547,1.5556641,1.03125,0.9995117,0.98876953,0.9824219,0.9785156,0.9760742,0.9741211,0.9711914,0.9682617,0.9658203,0.9638672,0.9614258,0.95996094,0.95751953,0.9555664,0.9536133,0.9511719,0.94873047,0.94677734,0.94433594,0.94091797,0.9379883,0.9355469,0.93310547,0.93066406,0.92871094,0.9248047,0.9243164,0.9169922
0.30297852,0.30029297,0.30541992,0.30493164,0.30664062,0.30786133,0.30908203,0.3095703,0.3112793,0.31225586,0.31396484,0.31518555,0.3161621,0.31689453,0.31762695,0.31811523,0.31933594,0.32055664,0.32177734,0.32299805,0.3244629,0.32543945,0.32666016,0.32739258,0.32861328,0.32958984,0.3310547,0.33203125,0.33325195,0.33447266,0.33569336,0.33691406,0.33813477,0.33935547,0.34106445,0.34228516,0.34375,0.3449707,0.34643555,0.34765625,0.3491211,0.3503418,0.35180664,0.35327148,0.3544922,0.35620117,0.3581543,0.36010742,0.36132812,0.36279297,0.36499023,0.36669922,0.3684082,0.3701172,0.37182617,0.37353516,0.37524414,0.37670898,0.3786621,0.3803711,0.38208008,0.38378906,0.3857422,0.38745117,0.3894043,0.39111328,0.39282227,0.39501953,0.39697266,0.39892578,0.40112305,0.40307617,0.40527344,0.40722656,0.40942383,0.4116211,0.41357422,0.41577148,0.41796875,0.42016602,0.42236328,0.4243164,0.42651367,0.42895508,0.43115234,0.4333496,0.43579102,0.43823242,0.44091797,0.44311523,0.4453125,0.4482422,0.45043945,0.45288086,0.45532227,0.45776367,0.46020508,0.46264648,0.46533203,0.46801758,0.47070312,0.47314453,0.47583008,0.47851562,0.48120117,0.48413086,0.48706055,0.49047852,0.49365234,0.49682617,0.5,0.50341797,0.5073242,0.5107422,0.51416016,0.5180664,0.5214844,0.5253906,0.5292969,0.5332031,0.5371094,0.5410156,0.5449219,0.5488281,0.5527344,0.5571289,0.56152344,0.5654297,0.56933594,0.57373047,0.5776367,0.58203125,0.5864258,0.59033203,0.59472656,0.5996094,0.6035156,0.60839844,0.6123047,0.6176758,0.6220703,0.6269531,0.63183594,0.63720703,0.64208984,0.64746094,0.65234375,0.6582031,0.6635742,0.6694336,0.67529297,0.68115234,0.6870117,0.6928711,0.69921875,0.7055664,0.71191406,0.71875,0.72558594,0.7319336,0.73876953,0.74609375,0.7529297,0.7602539,0.7675781,0.77490234,0.78271484,0.79003906,0.7973633,0.80566406,0.81396484,0.8222656,0.8300781,0.8388672,0.84716797,0.8564453,0.8652344,0.8745117,0.88427734,0.8935547,0.9033203,0.9135742,0.9243164,0.9350586,0.9453125,0.9560547,0.9663086,0.97753906,0.98876953,1.0,1.0126953,1.0253906,1.0380859,1.0507812,1.0654297,1.0791016,1.0927734,1.1083984,1.1240234,1.1396484,1.15625,1.1728516,1.1904297,1.2070312,1.2246094,1.2431641,1.2617188,1.2792969,1.2978516,1.3164062,1.3349609,1.3544922,1.375,1.3964844,1.4169922,1.4384766,1.4580078,1.4794922,1.4980469,1.5166016,1.53125,1.5507812,1.5644531,1.5703125,1.5869141,1.5703125,1.5166016,1.0,0.99072266,0.9838867,0.98095703,0.97802734,0.97558594,0.97265625,0.97021484,0.96777344,0.9658203,0.9633789,0.96191406,0.95947266,0.95703125,0.95458984,0.9526367,0.9506836,0.94873047,0.94628906,0.9433594,0.9404297,0.9375,0.9355469,0.93310547,0.93115234,0.9272461,0.9267578,0.9194336
0.30126953,0.30004883,0.30444336,0.30395508,0.30639648,0.30786133,0.3088379,0.30932617,0.31103516,0.31176758,0.3137207,0.31469727,0.31591797,0.31640625,0.3173828,0.3178711,0.31933594,0.3203125,0.32177734,0.32299805,0.3244629,0.32543945,0.32641602,0.32763672,0.32885742,0.32983398,0.3310547,0.33203125,0.33325195,0.33422852,0.33569336,0.33691406,0.33813477,0.33935547,0.3408203,0.34228516,0.34375,0.3449707,0.34643555,0.34765625,0.3491211,0.3503418,0.35180664,0.35327148,0.3544922,0.3564453,0.35791016,0.35961914,0.3618164,0.3635254,0.36499023,0.36694336,0.3684082,0.3701172,0.37182617,0.37353516,0.37524414,0.37670898,0.37841797,0.3803711,0.38208008,0.38378906,0.38549805,0.38745117,0.38916016,0.39111328,0.39282227,0.3947754,0.39672852,0.39892578,0.4008789,0.40283203,0.4050293,0.40722656,0.4091797,0.41137695,0.41357422,0.41577148,0.41796875,0.41967773,0.421875,0.42407227,0.42626953,0.4284668,0.43066406,0.43286133,0.43530273,0.43774414,0.44018555,0.44262695,0.44506836,0.4477539,0.4501953,0.45263672,0.45507812,0.45776367,0.4597168,0.4621582,0.4645996,0.46777344,0.47021484,0.47265625,0.47558594,0.47802734,0.4807129,0.48388672,0.4868164,0.49023438,0.4934082,0.49658203,0.5,0.50341797,0.50683594,0.5107422,0.51416016,0.5180664,0.5214844,0.5253906,0.5292969,0.5332031,0.5371094,0.5410156,0.5449219,0.5488281,0.55322266,0.5576172,0.56152344,0.5654297,0.5698242,0.57373047,0.578125,0.58203125,0.5864258,0.5908203,0.59472656,0.5996094,0.6040039,0.60839844,0.61279297,0.6176758,0.6220703,0.6274414,0.6323242,0.63720703,0.6425781,0.6479492,0.6533203,0.6586914,0.6640625,0.6694336,0.67529297,0.68115234,0.6870117,0.6933594,0.69970703,0.7060547,0.71240234,0.7192383,0.72558594,0.73291016,0.7392578,0.74609375,0.75341797,0.7602539,0.7675781,0.7753906,0.78271484,0.79052734,0.79785156,0.80615234,0.81396484,0.8222656,0.8305664,0.8388672,0.84716797,0.85595703,0.8652344,0.8745117,0.88427734,0.89404297,0.9038086,0.9140625,0.9243164,0.9350586,0.9453125,0.9560547,0.9667969,0.97753906,0.98876953,1.0,1.0126953,1.0253906,1.0380859,1.0517578,1.0654297,1.0791016,1.0927734,1.1083984,1.1240234,1.140625,1.15625,1.1738281,1.1904297,1.2070312,1.2246094,1.2431641,1.2617188,1.2802734,1.2978516,1.3173828,1.3359375,1.3554688,1.3759766,1.3974609,1.4179688,1.4394531,1.4589844,1.4804688,1.4990234,1.5166016,1.53125,1.5498047,1.5654297,1.5712891,1.5839844,1.5859375,1.5419922,1.0019531,0.9926758,0.98583984,0.9824219,0.9794922,0.97753906,0.9741211,0.97216797,0.9692383,0.96728516,0.96533203,0.9633789,0.9609375,0.9584961,0.95654297,0.9550781,0.9526367,0.9506836,0.9482422,0.9448242,0.9423828,0.9399414,0.9379883,0.9355469,0.93310547,0.9291992,0.92822266,0.92089844
0.30126953,0.29882812,0.3034668,0.30371094,0.30664062,0.3076172,0.30908203,0.30932617,0.31103516,0.31201172,0.3137207,0.31469727,0.31591797,0.31640625,0.3173828,0.3178711,0.3190918,0.32006836,0.32177734,0.3232422,0.32421875,0.3251953,0.32666016,0.32788086,0.32885742,0.32958984,0.3310547,0.33203125,0.33325195,0.33447266,0.3359375,0.33691406,0.3383789,0.3395996,0.34106445,0.3425293,0.34375,0.34521484,0.34643555,0.3479004,0.3491211,0.35058594,0.35205078,0.35351562,0.35498047,0.35668945,0.35791016,0.35986328,0.3618164,0.3635254,0.36523438,0.36694336,0.3684082,0.3701172,0.37158203,0.37353516,0.375,0.37670898,0.37841797,0.38012695,0.38183594,0.38354492,0.38549805,0.38720703,0.38891602,0.39086914,0.39282227,0.3947754,0.39672852,0.39868164,0.40063477,0.40283203,0.40478516,0.40698242,0.40893555,0.41137695,0.41333008,0.41552734,0.4177246,0.41967773,0.42163086,0.42382812,0.4260254,0.42797852,0.43017578,0.4326172,0.43481445,0.4375,0.43969727,0.44189453,0.44458008,0.44702148,0.44921875,0.4519043,0.4543457,0.4572754,0.45922852,0.46191406,0.4645996,0.46728516,0.46972656,0.47216797,0.47509766,0.47802734,0.4807129,0.48364258,0.4868164,0.48999023,0.49316406,0.4963379,0.49975586,0.50341797,0.50683594,0.5107422,0.51416016,0.5180664,0.52197266,0.5253906,0.5292969,0.5332031,0.5371094,0.5410156,0.5449219,0.5493164,0.55371094,0.5576172,0.56152344,0.5654297,0.5698242,0.57373047,0.578125,0.58251953,0.5864258,0.5908203,0.59521484,0.5996094,0.6040039,0.60839844,0.61279297,0.6176758,0.6220703,0.6274414,0.6323242,0.6376953,0.6425781,0.6484375,0.6538086,0.6591797,0.6645508,0.67041016,0.67578125,0.6816406,0.6875,0.69384766,0.69970703,0.70654297,0.7128906,0.71972656,0.7260742,0.73291016,0.7397461,0.74658203,0.75341797,0.7607422,0.7680664,0.7753906,0.7832031,0.7910156,0.79833984,0.80615234,0.8144531,0.8227539,0.8310547,0.83935547,0.84765625,0.8564453,0.86572266,0.875,0.88427734,0.89453125,0.9038086,0.9140625,0.9243164,0.9350586,0.9453125,0.95654297,0.9667969,0.97802734,0.98828125,1.0009766,1.0126953,1.0253906,1.0380859,1.0527344,1.0664062,1.0800781,1.09375,1.1083984,1.1240234,1.140625,1.1572266,1.1738281,1.1914062,1.2080078,1.2255859,1.2431641,1.2617188,1.2802734,1.2978516,1.3183594,1.3369141,1.3574219,1.3769531,1.3974609,1.4189453,1.4394531,1.4599609,1.4804688,1.4990234,1.515625,1.5322266,1.5517578,1.5644531,1.5712891,1.5927734,1.5947266,1.5771484,1.0009766,0.9926758,0.9868164,0.98339844,0.98095703,0.9785156,0.9760742,0.9736328,0.9707031,0.96875,0.9663086,0.96435547,0.96240234,0.9604492,0.9584961,0.95703125,0.95458984,0.9526367,0.9501953,0.9472656,0.9448242,0.94189453,0.9404297,0.9375,0.9355469,0.9316406,0.9296875,0.9223633
0.29882812,0.29760742,0.30297852,0.30322266,0.30615234,0.3076172,0.30859375,0.3088379,0.31054688,0.31152344,0.31347656,0.31445312,0.31567383,0.31640625,0.3173828,0.3178711,0.3190918,0.3203125,0.32177734,0.32299805,0.3244629,0.32592773,0.32714844,0.32788086,0.32910156,0.32983398,0.3310547,0.33251953,0.33374023,0.3347168,0.3359375,0.33740234,0.33862305,0.3400879,0.3413086,0.34277344,0.34423828,0.34545898,0.3466797,0.34838867,0.34960938,0.35083008,0.35253906,0.3540039,0.35546875,0.3569336,0.35864258,0.3605957,0.36206055,0.36376953,0.36523438,0.36669922,0.3684082,0.36987305,0.37158203,0.37329102,0.375,0.37670898,0.37817383,0.38012695,0.38183594,0.38354492,0.38549805,0.38720703,0.38891602,0.39086914,0.39257812,0.39453125,0.39648438,0.3984375,0.40063477,0.4025879,0.40478516,0.40673828,0.4086914,0.41088867,0.41308594,0.41503906,0.41723633,0.4194336,0.42138672,0.42358398,0.42529297,0.42749023,0.4296875,0.4321289,0.4345703,0.43676758,0.43896484,0.4416504,0.4440918,0.4465332,0.44921875,0.45166016,0.45410156,0.4567871,0.45898438,0.46166992,0.46435547,0.46704102,0.46972656,0.4724121,0.47485352,0.47802734,0.4807129,0.48364258,0.48657227,0.48999023,0.49316406,0.49682617,0.5,0.50341797,0.5073242,0.5107422,0.51416016,0.5180664,0.52197266,0.5258789,0.52978516,0.5336914,0.53759766,0.5419922,0.54589844,0.5498047,0.5541992,0.5576172,0.5620117,0.56591797,0.5703125,0.57421875,0.5786133,0.5830078,0.58691406,0.5913086,0.5957031,0.60009766,0.6044922,0.6088867,0.61328125,0.61816406,0.6230469,0.6279297,0.6328125,0.6381836,0.6435547,0.6489258,0.6542969,0.66015625,0.66503906,0.67041016,0.67626953,0.6821289,0.6879883,0.69433594,0.7006836,0.70703125,0.7133789,0.72021484,0.7265625,0.7338867,0.74072266,0.7470703,0.75390625,0.76123047,0.7685547,0.7758789,0.7836914,0.7910156,0.7988281,0.8066406,0.8144531,0.8227539,0.8310547,0.83935547,0.84814453,0.8569336,0.86572266,0.8754883,0.8847656,0.89404297,0.9038086,0.9140625,0.9243164,0.9345703,0.9453125,0.9560547,0.9667969,0.97753906,0.98876953,1.0009766,1.0136719,1.0263672,1.0380859,1.0517578,1.0664062,1.0800781,1.09375,1.109375,1.125,1.140625,1.1572266,1.1748047,1.1914062,1.2089844,1.2255859,1.2441406,1.2626953,1.28125,1.2998047,1.3193359,1.3378906,1.3583984,1.3789062,1.3994141,1.4199219,1.4414062,1.4609375,1.4814453,1.5,1.5175781,1.5341797,1.5546875,1.5654297,1.5751953,1.59375,1.6044922,1.5917969,1.0068359,0.9926758,0.9897461,0.9848633,0.9819336,0.97998047,0.97753906,0.97509766,0.97216797,0.97021484,0.96777344,0.9658203,0.9638672,0.96240234,0.9604492,0.9584961,0.95654297,0.95458984,0.9526367,0.9501953,0.9472656,0.94433594,0.9423828,0.9399414,0.9375,0.93359375,0.93066406,0.9238281
