2.3056252,2.3056252,2.3056252,2.289375,2.2652502,2.27325,2.2495,2.24175,2.27325,2.3138752,2.3390002,2.3390002,2.3475,2.3390002,2.3221252,2.3221252,2.3646252,2.3646252,2.3221252,2.3138752,2.3221252,2.3305001,2.3475,2.399625,2.4176252,2.4636252,2.4450002,2.4450002,2.4086251,2.4086251,2.4450002,2.426625,2.4176252,2.399625,2.4086251,2.399625,2.399625,2.45425,2.4636252,2.45425,2.4450002,2.45425,2.43575,2.4176252,2.4086251,2.4450002,2.4450002,2.426625,2.426625,2.426625,2.3907502,2.37325,2.37325,2.3820002,2.37325,2.3646252,2.3820002,2.4086251,2.426625,2.399625,2.426625,2.426625,2.4176252,2.399625,2.3907502,2.3907502,2.399625,2.4086251,2.399625,2.37325,2.3820002,2.3820002,2.3646252,2.3475,2.3390002,2.3138752,2.3390002,2.37325,2.3907502,2.3907502,2.3820002,2.3907502,2.4450002,2.4450002,2.4450002,2.43575,2.426625,2.24175,2.226375,2.4086251,2.399625,2.3221252,2.289375,2.289375,2.3056252,2.3305001,2.3305001,2.3560002,2.3475,2.3475,2.3560002,2.3560002,2.3475,2.3305001,2.3820002,2.5815,2.5113752,2.399625,2.5113752,2.289375,2.426625,2.43575,2.3907502,2.3560002,2.2652502,2.257375,2.2495,2.24175,2.2340002,2.2495,2.28125,2.3138752,2.3221252,2.5310001,2.551,2.6233752,2.65575,2.7,2.68875,2.666625,2.65575,2.65575,2.65575,2.7113752,2.65575,2.5815,2.5712502,2.5712502,2.561125,2.551,2.551,2.5310001,2.52125,2.5310001,2.52125,2.52125,2.52125,2.52125,2.5815,2.61275,2.6233752,2.61275,2.561125,2.52125,2.52125,2.5113752,2.492125,2.473,2.45425,2.45425,2.4636252,2.4825,2.5310001,2.5113752,2.5017502,2.5017502,2.5113752,2.5113752,2.492125,2.45425,2.45425,2.4636252,2.4636252,2.492125,2.52125,2.5310001,2.52125,2.60225,2.6776252,2.5310001,2.5113752,2.4825,2.4636252,2.45425,2.4825,2.4636252,2.4636252,2.45425,2.473,2.5113752,2.5410001,2.5410001,2.52125,2.492125,2.5017502,2.5017502,2.5113752,2.52125,2.52125,2.5113752,2.4825,2.5017502,2.5410001,2.561125,2.551,2.551,2.551,2.551,2.561125,2.6233752,2.644875,2.6233752,2.60225,2.61275,2.6341252,2.644875,2.65575,2.65575,2.666625,2.65575,2.644875,2.666625,2.65575,2.666625,2.666625,2.6776252,2.68875,2.7,2.7,2.73425,2.7458751,2.7575002,2.73425,2.7113752,2.7113752,2.7113752,2.7113752,2.7,2.65575,2.6233752,2.60225,2.591875,2.5712502,2.5410001,2.5310001,2.52125,2.5017502,2.5113752,2.5310001,2.5410001,2.5310001,2.5017502,2.551,2.5310001,2.5410001,2.5310001,2.5310001,2.5310001,2.5310001,2.5410001,2.551,2.5712502,2.5815,2.591875,2.60225,2.61275,2.5815,2.61275,2.61275,2.61275,2.61275,2.60225,2.6233752,2.591875,2.5712502,2.5815,2.5712502,2.551,2.561125,2.5815,2.561125,2.5410001,2.5712502,2.591875,2.61275,2.6341252,2.644875,2.6233752,2.61275,2.6341252,2.6776252,2.7227502,2.7227502,2.7,2.7,2.7,2.7113752,2.7,2.68875,2.666625,2.6233752,2.5113752,2.52125,2.5113752,2.473,2.61275,2.6233752,2.65575,2.666625,2.68875,2.644875,2.6233752,2.6233752,2.6341252,2.65575,2.61275,2.61275,2.6233752,2.6233752,2.61275,2.5815,2.5410001,2.561125,2.61275,2.65575,2.7,2.6233752,2.6233752,2.6233752,2.6233752,2.644875,2.6233752,2.60225,2.60225,2.61275,2.61275,2.5712502,2.561125,2.5712502,2.5815,2.6233752,2.666625,2.7,2.7113752,2.7,2.68875,2.644875,2.60225,2.5712502,2.5310001,2.5410001,2.5310001,2.5310001,2.5310001,2.5310001,2.5310001,2.561125
2.3056252,2.3056252,2.2975001,2.2975001,2.28125,2.289375,2.28125,2.27325,2.2975001,2.3221252,2.3475,2.3475,2.3560002,2.3475,2.3305001,2.3305001,2.3560002,2.3646252,2.3305001,2.3221252,2.3305001,2.3305001,2.3390002,2.3820002,2.399625,2.4636252,2.4450002,2.4450002,2.43575,2.4450002,2.473,2.426625,2.426625,2.4450002,2.43575,2.43575,2.45425,2.4450002,2.4636252,2.45425,2.45425,2.45425,2.43575,2.4176252,2.4176252,2.43575,2.43575,2.426625,2.45425,2.492125,2.399625,2.3907502,2.3907502,2.4636252,2.4176252,2.4086251,2.4176252,2.45425,2.4636252,2.43575,2.43575,2.426625,2.426625,2.4176252,2.4086251,2.426625,2.45425,2.45425,2.45425,2.43575,2.426625,2.4176252,2.3907502,2.3646252,2.3390002,2.3138752,2.3475,2.37325,2.399625,2.399625,2.3907502,2.399625,2.4450002,2.43575,2.43575,2.426625,2.426625,2.4176252,2.4086251,2.426625,2.4176252,2.3475,2.3056252,2.2975001,2.3056252,2.3390002,2.3305001,2.3646252,2.3560002,2.3646252,2.3560002,2.3646252,2.3646252,2.3305001,2.551,2.6233752,2.68875,2.7113752,2.73425,2.7575002,2.473,2.492125,2.426625,2.3907502,2.2652502,2.289375,2.27325,2.27325,2.257375,2.28125,2.3138752,2.3475,2.3221252,2.5113752,2.561125,2.6233752,2.65575,2.68875,2.68875,2.6776252,2.666625,2.666625,2.68875,2.7,2.65575,2.6341252,2.61275,2.60225,2.591875,2.5815,2.591875,2.561125,2.5410001,2.5410001,2.5310001,2.5310001,2.5410001,2.551,2.591875,2.6341252,2.65575,2.6341252,2.5815,2.551,2.5815,2.5815,2.5712502,2.52125,2.4825,2.473,2.473,2.5017502,2.5410001,2.5017502,2.4825,2.4825,2.492125,2.5113752,2.4825,2.45425,2.45425,2.45425,2.473,2.492125,2.52125,2.5310001,2.5310001,2.60225,2.7113752,2.5815,2.5310001,2.4825,2.4636252,2.45425,2.492125,2.473,2.45425,2.4636252,2.4825,2.52125,2.561125,2.5815,2.5410001,2.492125,2.5113752,2.5113752,2.52125,2.52125,2.52125,2.492125,2.4636252,2.492125,2.5310001,2.551,2.551,2.551,2.551,2.561125,2.591875,2.6233752,2.644875,2.61275,2.591875,2.61275,2.644875,2.65575,2.666625,2.666625,2.68875,2.68875,2.68875,2.7,2.6776252,2.68875,2.68875,2.7,2.7113752,2.7113752,2.7113752,2.7458751,2.7575002,2.7575002,2.73425,2.7113752,2.7113752,2.7227502,2.73425,2.7227502,2.6776252,2.65575,2.6341252,2.6233752,2.591875,2.551,2.5410001,2.551,2.551,2.551,2.5815,2.60225,2.60225,2.551,2.7812502,2.73425,2.60225,2.5815,2.5712502,2.5712502,2.561125,2.561125,2.5712502,2.5815,2.591875,2.61275,2.6233752,2.6341252,2.60225,2.6233752,2.6233752,2.6341252,2.6233752,2.6233752,2.6341252,2.60225,2.5815,2.591875,2.5815,2.561125,2.561125,2.5712502,2.561125,2.5310001,2.561125,2.60225,2.6341252,2.65575,2.644875,2.6233752,2.6233752,2.6341252,2.68875,2.73425,2.7227502,2.7,2.7,2.68875,2.7,2.68875,2.6776252,2.666625,2.6341252,2.591875,2.61275,2.5712502,2.5017502,2.65575,2.6776252,2.7,2.7,2.7113752,2.666625,2.6341252,2.6341252,2.6341252,2.65575,2.6233752,2.6233752,2.6341252,2.6341252,2.6341252,2.61275,2.5712502,2.591875,2.666625,2.6776252,2.68875,2.6776252,2.644875,2.644875,2.65575,2.65575,2.6233752,2.591875,2.5815,2.60225,2.61275,2.5815,2.561125,2.5712502,2.5815,2.6341252,2.68875,2.7227502,2.7227502,2.7,2.6776252,2.65575,2.6233752,2.591875,2.561125,2.561125,2.551,2.551,2.551,2.5310001,2.52125,2.551
2.3056252,2.2975001,2.2975001,2.289375,2.27325,2.28125,2.289375,2.2975001,2.3056252,2.3390002,2.3646252,2.3646252,2.3646252,2.3646252,2.3560002,2.3475,2.3820002,2.3907502,2.3305001,2.3221252,2.3221252,2.3138752,2.3221252,2.3560002,2.37325,2.45425,2.426625,2.4450002,2.473,2.4825,2.492125,2.43575,2.43575,2.45425,2.4450002,2.43575,2.4825,2.4636252,2.4636252,2.45425,2.4636252,2.4636252,2.45425,2.4450002,2.43575,2.45425,2.5017502,2.43575,2.5113752,2.5410001,2.5017502,2.43575,2.4636252,2.5113752,2.4450002,2.43575,2.4450002,2.473,2.492125,2.4636252,2.4636252,2.45425,2.45425,2.426625,2.4176252,2.4450002,2.4636252,2.45425,2.43575,2.43575,2.43575,2.43575,2.4176252,2.3820002,2.3560002,2.3221252,2.3560002,2.37325,2.3907502,2.399625,2.3907502,2.399625,2.43575,2.43575,2.43575,2.4450002,2.43575,2.43575,2.4176252,2.4450002,2.4450002,2.4086251,2.3221252,2.3221252,2.3221252,2.3475,2.3560002,2.3820002,2.37325,2.3907502,2.3646252,2.4450002,2.37325,2.3907502,2.5712502,2.6776252,2.7227502,2.7458751,2.7575002,2.7575002,2.7227502,2.5017502,2.426625,2.4086251,2.28125,2.3475,2.3390002,2.3305001,2.3221252,2.3305001,2.3646252,2.3820002,2.43575,2.5017502,2.5815,2.6341252,2.6776252,2.7,2.68875,2.6776252,2.666625,2.6776252,2.68875,2.7113752,2.65575,2.644875,2.6341252,2.61275,2.60225,2.591875,2.61275,2.5815,2.551,2.551,2.5410001,2.5410001,2.551,2.561125,2.60225,2.644875,2.65575,2.644875,2.5815,2.561125,2.6233752,2.6233752,2.60225,2.551,2.5017502,2.492125,2.4825,2.5017502,2.5410001,2.492125,2.4825,2.473,2.492125,2.492125,2.4825,2.45425,2.45425,2.45425,2.473,2.492125,2.52125,2.5410001,2.551,2.61275,2.7,2.6233752,2.551,2.5113752,2.4825,2.473,2.5113752,2.4825,2.4636252,2.473,2.5017502,2.551,2.60225,2.6233752,2.5712502,2.5113752,2.5310001,2.5310001,2.5410001,2.5410001,2.5310001,2.5113752,2.4636252,2.492125,2.5310001,2.551,2.5410001,2.551,2.551,2.561125,2.591875,2.6233752,2.6341252,2.60225,2.591875,2.61275,2.65575,2.6776252,2.68875,2.7,2.7113752,2.7227502,2.7113752,2.73425,2.7113752,2.7113752,2.7,2.7113752,2.7113752,2.7,2.7,2.7227502,2.73425,2.7458751,2.7227502,2.7113752,2.7,2.7113752,2.7227502,2.7227502,2.6776252,2.65575,2.644875,2.6341252,2.61275,2.5712502,2.551,2.5712502,2.5712502,2.591875,2.6233752,2.65575,2.68875,2.68875,2.7812502,2.7458751,2.68875,2.65575,2.6341252,2.6341252,2.60225,2.5815,2.5815,2.5815,2.60225,2.6233752,2.6233752,2.644875,2.6233752,2.644875,2.65575,2.65575,2.644875,2.644875,2.65575,2.6233752,2.60225,2.60225,2.5815,2.561125,2.561125,2.5712502,2.551,2.5310001,2.561125,2.60225,2.6341252,2.65575,2.666625,2.644875,2.644875,2.666625,2.7113752,2.7458751,2.7227502,2.68875,2.6776252,2.666625,2.68875,2.666625,2.666625,2.666625,2.644875,2.6341252,2.666625,2.65575,2.6233752,2.644875,2.7,2.7227502,2.7113752,2.7113752,2.666625,2.6341252,2.6341252,2.6341252,2.65575,2.644875,2.65575,2.644875,2.644875,2.644875,2.6233752,2.591875,2.61275,2.666625,2.68875,2.68875,2.6776252,2.644875,2.644875,2.65575,2.65575,2.6341252,2.60225,2.591875,2.60225,2.61275,2.591875,2.5712502,2.561125,2.5815,2.644875,2.68875,2.7113752,2.7113752,2.6776252,2.666625,2.644875,2.6341252,2.61275,2.591875,2.5815,2.5712502,2.5712502,2.551,2.5410001,2.52125,2.561125
2.3138752,2.3056252,2.3056252,2.2975001,2.28125,2.289375,2.289375,2.289375,2.3138752,2.3390002,2.37325,2.37325,2.3820002,2.3820002,2.3907502,2.399625,2.43575,2.4450002,2.4450002,2.492125,2.473,2.3056252,2.3138752,2.3475,2.3560002,2.3560002,2.4636252,2.4825,2.492125,2.5017502,2.492125,2.4450002,2.426625,2.426625,2.4086251,2.4086251,2.4636252,2.45425,2.45425,2.4636252,2.473,2.4825,2.4825,2.4825,2.5017502,2.52125,2.5712502,2.5113752,2.5310001,2.5310001,2.5310001,2.5017502,2.5310001,2.52125,2.4636252,2.45425,2.4636252,2.4825,2.5017502,2.4825,2.4825,2.492125,2.492125,2.4636252,2.45425,2.473,2.4825,2.473,2.45425,2.4636252,2.4636252,2.4636252,2.43575,2.4086251,2.3820002,2.3475,2.37325,2.3907502,2.399625,2.399625,2.399625,2.399625,2.426625,2.4450002,2.4450002,2.45425,2.45425,2.4450002,2.43575,2.4450002,2.4450002,2.4450002,2.3820002,2.3646252,2.3475,2.37325,2.3907502,2.399625,2.3820002,2.4086251,2.5113752,2.5113752,2.5310001,2.5712502,2.60225,2.7,2.73425,2.7458751,2.7575002,2.769375,2.7458751,2.7458751,2.73425,2.68875,2.644875,2.4176252,2.3907502,2.399625,2.399625,2.37325,2.399625,2.426625,2.4450002,2.5113752,2.61275,2.65575,2.7,2.7227502,2.7227502,2.7,2.68875,2.7,2.7113752,2.7113752,2.666625,2.65575,2.6233752,2.60225,2.591875,2.5815,2.61275,2.60225,2.5712502,2.561125,2.551,2.551,2.561125,2.5815,2.61275,2.644875,2.65575,2.644875,2.60225,2.591875,2.644875,2.6341252,2.6341252,2.591875,2.52125,2.492125,2.492125,2.5815,2.5815,2.5113752,2.52125,2.5017502,2.5113752,2.5113752,2.492125,2.45425,2.4636252,2.45425,2.473,2.492125,2.5310001,2.5712502,2.60225,2.644875,2.7,2.644875,2.591875,2.561125,2.5113752,2.5113752,2.561125,2.52125,2.5113752,2.5113752,2.5410001,2.591875,2.644875,2.65575,2.6341252,2.561125,2.5712502,2.5712502,2.5712502,2.5815,2.5815,2.561125,2.5017502,2.5113752,2.551,2.561125,2.551,2.5410001,2.551,2.561125,2.5815,2.61275,2.6233752,2.591875,2.5815,2.60225,2.65575,2.68875,2.7,2.7113752,2.7227502,2.73425,2.73425,2.7458751,2.73425,2.73425,2.7113752,2.7113752,2.7113752,2.7,2.6776252,2.7113752,2.7227502,2.7227502,2.7113752,2.68875,2.7,2.7,2.7113752,2.7113752,2.666625,2.65575,2.644875,2.644875,2.6233752,2.591875,2.5815,2.60225,2.60225,2.6233752,2.65575,2.7113752,2.7575002,2.7575002,2.805375,2.7575002,2.7227502,2.7,2.666625,2.644875,2.60225,2.5712502,2.5712502,2.5815,2.60225,2.6233752,2.6233752,2.644875,2.6341252,2.65575,2.666625,2.6776252,2.6776252,2.666625,2.6776252,2.65575,2.6341252,2.6233752,2.5815,2.561125,2.5712502,2.5712502,2.561125,2.5410001,2.561125,2.60225,2.6341252,2.65575,2.6776252,2.6776252,2.6776252,2.68875,2.7227502,2.7458751,2.7227502,2.666625,2.666625,2.65575,2.666625,2.65575,2.644875,2.65575,2.6341252,2.6341252,2.6776252,2.6776252,2.6776252,2.6776252,2.7,2.7,2.68875,2.68875,2.666625,2.644875,2.6341252,2.644875,2.65575,2.644875,2.666625,2.65575,2.65575,2.644875,2.6233752,2.60225,2.6233752,2.65575,2.6776252,2.68875,2.666625,2.644875,2.65575,2.666625,2.6776252,2.6341252,2.60225,2.60225,2.6233752,2.6233752,2.60225,2.591875,2.561125,2.5815,2.644875,2.68875,2.7,2.7,2.6776252,2.666625,2.644875,2.65575,2.644875,2.6341252,2.60225,2.60225,2.591875,2.5815,2.561125,2.551,2.6233752
2.3221252,2.3305001,2.3305001,2.3305001,2.3138752,2.3056252,2.3056252,2.3056252,2.3138752,2.3475,2.3820002,2.3820002,2.3907502,2.399625,2.4176252,2.43575,2.473,2.492125,2.492125,2.492125,2.45425,2.43575,2.43575,2.3560002,2.3475,2.3475,2.3138752,2.3138752,2.3138752,2.289375,2.289375,2.28125,2.3305001,2.37325,2.3056252,2.2652502,2.4086251,2.4176252,2.426625,2.4176252,2.4450002,2.4825,2.492125,2.5017502,2.5310001,2.561125,2.5712502,2.551,2.5310001,2.5310001,2.551,2.5410001,2.551,2.5310001,2.4636252,2.4636252,2.473,2.492125,2.5017502,2.5017502,2.5017502,2.5017502,2.52125,2.5113752,2.5113752,2.5113752,2.5113752,2.5113752,2.5310001,2.5310001,2.52125,2.5017502,2.4825,2.4450002,2.43575,2.4176252,2.4176252,2.4086251,2.399625,2.4086251,2.399625,2.399625,2.426625,2.4450002,2.4450002,2.45425,2.45425,2.45425,2.4450002,2.43575,2.4450002,2.45425,2.426625,2.399625,2.3820002,2.3907502,2.4176252,2.426625,2.4176252,2.5410001,2.5410001,2.5410001,2.551,2.60225,2.61275,2.7,2.7458751,2.7575002,2.7575002,2.769375,2.7812502,2.7812502,2.769375,2.73425,2.61275,2.473,2.426625,2.426625,2.426625,2.3907502,2.4176252,2.43575,2.45425,2.5113752,2.6233752,2.6776252,2.7,2.7227502,2.7227502,2.7113752,2.68875,2.7,2.7,2.7,2.65575,2.6341252,2.5815,2.5712502,2.5712502,2.591875,2.6233752,2.60225,2.5815,2.5712502,2.5712502,2.5712502,2.5815,2.591875,2.60225,2.644875,2.65575,2.644875,2.61275,2.6233752,2.666625,2.65575,2.65575,2.61275,2.5410001,2.5113752,2.52125,2.61275,2.65575,2.5712502,2.5815,2.551,2.5410001,2.5410001,2.5017502,2.473,2.473,2.473,2.4825,2.5113752,2.551,2.60225,2.6341252,2.666625,2.7113752,2.65575,2.6341252,2.60225,2.561125,2.551,2.591875,2.551,2.551,2.561125,2.591875,2.6341252,2.6776252,2.68875,2.6776252,2.644875,2.644875,2.6341252,2.6341252,2.644875,2.644875,2.6233752,2.5410001,2.551,2.5815,2.591875,2.5712502,2.561125,2.5410001,2.5712502,2.5815,2.61275,2.6233752,2.60225,2.5815,2.591875,2.65575,2.68875,2.68875,2.7227502,2.7227502,2.7227502,2.7227502,2.73425,2.73425,2.7227502,2.7,2.68875,2.68875,2.68875,2.666625,2.7,2.7113752,2.7,2.666625,2.666625,2.666625,2.6776252,2.6776252,2.68875,2.644875,2.644875,2.644875,2.6341252,2.6341252,2.6233752,2.6341252,2.6341252,2.6341252,2.65575,2.68875,2.7458751,2.79325,2.79325,2.8175,2.7458751,2.7113752,2.7,2.666625,2.6233752,2.561125,2.551,2.551,2.5712502,2.591875,2.61275,2.6233752,2.644875,2.644875,2.6776252,2.7,2.68875,2.6776252,2.6776252,2.6776252,2.6776252,2.65575,2.65575,2.61275,2.591875,2.591875,2.5815,2.5815,2.551,2.561125,2.60225,2.6233752,2.644875,2.666625,2.6776252,2.7,2.7113752,2.73425,2.7458751,2.73425,2.6776252,2.666625,2.6776252,2.666625,2.644875,2.644875,2.644875,2.6341252,2.644875,2.666625,2.6776252,2.6776252,2.6776252,2.68875,2.7,2.68875,2.666625,2.666625,2.65575,2.644875,2.644875,2.644875,2.6341252,2.65575,2.6341252,2.644875,2.6233752,2.591875,2.5712502,2.60225,2.61275,2.6341252,2.644875,2.644875,2.6233752,2.644875,2.644875,2.65575,2.6233752,2.61275,2.61275,2.6233752,2.6341252,2.6233752,2.61275,2.591875,2.60225,2.644875,2.68875,2.7113752,2.68875,2.6776252,2.666625,2.666625,2.6776252,2.68875,2.6776252,2.644875,2.6341252,2.6341252,2.61275,2.5815,2.5815,2.6776252
2.3305001,2.3390002,2.3305001,2.3475,2.3221252,2.3138752,2.3056252,2.3056252,2.3138752,2.3560002,2.37325,2.3820002,2.3820002,2.3907502,2.4176252,2.426625,2.473,2.492125,2.52125,2.4825,2.43575,2.4176252,2.4176252,2.37325,2.37325,2.3907502,2.3907502,2.3646252,2.3221252,2.2975001,2.2975001,2.289375,2.28125,2.37325,2.257375,2.257375,2.4086251,2.4176252,2.399625,2.37325,2.426625,2.473,2.5017502,2.5017502,2.5310001,2.5410001,2.551,2.5410001,2.52125,2.5310001,2.551,2.551,2.551,2.5410001,2.4825,2.4825,2.492125,2.5017502,2.5113752,2.5017502,2.5017502,2.52125,2.551,2.561125,2.561125,2.5410001,2.5410001,2.5712502,2.61275,2.61275,2.5815,2.551,2.5113752,2.4825,2.492125,2.492125,2.4636252,2.43575,2.4176252,2.4176252,2.4086251,2.4176252,2.43575,2.4450002,2.4450002,2.4450002,2.45425,2.4636252,2.4636252,2.4636252,2.4636252,2.473,2.473,2.45425,2.426625,2.4176252,2.45425,2.4636252,2.4825,2.52125,2.551,2.551,2.551,2.591875,2.591875,2.551,2.73425,2.73425,2.73425,2.769375,2.7812502,2.79325,2.79325,2.7575002,2.644875,2.5410001,2.4825,2.473,2.4636252,2.4176252,2.43575,2.45425,2.4825,2.5310001,2.644875,2.6776252,2.7113752,2.7113752,2.7113752,2.7113752,2.7,2.68875,2.7,2.68875,2.65575,2.60225,2.561125,2.561125,2.5712502,2.591875,2.6341252,2.6341252,2.6233752,2.61275,2.60225,2.60225,2.60225,2.60225,2.60225,2.6233752,2.6341252,2.6341252,2.61275,2.6233752,2.666625,2.6776252,2.666625,2.6341252,2.5815,2.561125,2.5815,2.61275,2.6776252,2.61275,2.6341252,2.591875,2.5815,2.5712502,2.5310001,2.5017502,2.5017502,2.492125,2.5113752,2.5310001,2.561125,2.61275,2.644875,2.68875,2.7113752,2.6776252,2.6776252,2.65575,2.6341252,2.6233752,2.644875,2.61275,2.60225,2.61275,2.6341252,2.6776252,2.7,2.7,2.7113752,2.68875,2.68875,2.6776252,2.666625,2.6776252,2.666625,2.65575,2.5815,2.5815,2.60225,2.61275,2.61275,2.60225,2.5815,2.591875,2.591875,2.61275,2.6341252,2.60225,2.5815,2.60225,2.65575,2.6776252,2.68875,2.7227502,2.73425,2.7113752,2.7113752,2.7227502,2.73425,2.7227502,2.68875,2.68875,2.6776252,2.666625,2.65575,2.68875,2.68875,2.6776252,2.644875,2.644875,2.644875,2.65575,2.65575,2.65575,2.6233752,2.6341252,2.65575,2.644875,2.644875,2.644875,2.666625,2.65575,2.65575,2.666625,2.7,2.73425,2.7812502,2.7812502,2.79325,2.7227502,2.6776252,2.65575,2.65575,2.61275,2.561125,2.551,2.561125,2.5712502,2.591875,2.61275,2.6233752,2.644875,2.65575,2.6776252,2.68875,2.68875,2.6776252,2.666625,2.6776252,2.6776252,2.6776252,2.6776252,2.6341252,2.61275,2.6233752,2.591875,2.591875,2.5712502,2.591875,2.61275,2.6341252,2.644875,2.666625,2.6776252,2.7,2.7227502,2.7458751,2.769375,2.7575002,2.7,2.6776252,2.68875,2.6776252,2.666625,2.65575,2.65575,2.6341252,2.644875,2.6776252,2.68875,2.6776252,2.68875,2.68875,2.7,2.7,2.666625,2.6341252,2.61275,2.61275,2.61275,2.60225,2.6233752,2.6233752,2.61275,2.6233752,2.61275,2.5815,2.5410001,2.551,2.60225,2.61275,2.60225,2.61275,2.60225,2.61275,2.61275,2.6233752,2.6233752,2.61275,2.60225,2.61275,2.644875,2.65575,2.65575,2.644875,2.644875,2.6776252,2.7,2.7,2.6776252,2.6776252,2.666625,2.65575,2.68875,2.7,2.68875,2.6776252,2.666625,2.666625,2.666625,2.6233752,2.60225,2.65575
2.3305001,2.3390002,2.3305001,2.3390002,2.3138752,2.3056252,2.2975001,2.289375,2.2975001,2.3390002,2.3560002,2.3560002,2.3560002,2.3646252,2.3907502,2.3907502,2.426625,2.4450002,2.4825,2.4636252,2.4176252,2.399625,2.399625,2.37325,2.426625,2.45425,2.4636252,2.43575,2.473,2.5113752,2.52125,2.473,2.4636252,2.45425,2.43575,2.4450002,2.4450002,2.4450002,2.426625,2.4086251,2.4450002,2.473,2.492125,2.5113752,2.52125,2.5410001,2.561125,2.5310001,2.5310001,2.551,2.561125,2.561125,2.561125,2.561125,2.5310001,2.5113752,2.5017502,2.52125,2.52125,2.5310001,2.5310001,2.551,2.60225,2.6341252,2.6341252,2.60225,2.60225,2.644875,2.666625,2.666625,2.644875,2.591875,2.5410001,2.5113752,2.5310001,2.5410001,2.5017502,2.473,2.45425,2.45425,2.4450002,2.4450002,2.4450002,2.4450002,2.45425,2.4450002,2.45425,2.4450002,2.4450002,2.4636252,2.4825,2.5017502,2.492125,2.4825,2.45425,2.4450002,2.4825,2.492125,2.5017502,2.5310001,2.5410001,2.5410001,2.5410001,2.551,2.561125,2.5410001,2.7113752,2.7227502,2.73425,2.7575002,2.769375,2.79325,2.7812502,2.769375,2.6776252,2.591875,2.5410001,2.551,2.52125,2.4636252,2.4636252,2.4825,2.5113752,2.5712502,2.644875,2.666625,2.68875,2.7,2.7,2.7113752,2.7,2.68875,2.6776252,2.6776252,2.644875,2.591875,2.551,2.561125,2.591875,2.6233752,2.6776252,2.6776252,2.68875,2.666625,2.65575,2.65575,2.65575,2.6341252,2.60225,2.61275,2.6233752,2.61275,2.61275,2.6233752,2.666625,2.666625,2.65575,2.6341252,2.60225,2.591875,2.60225,2.6341252,2.65575,2.61275,2.6233752,2.5815,2.5815,2.5815,2.5712502,2.551,2.551,2.5310001,2.5310001,2.551,2.5712502,2.6233752,2.65575,2.6776252,2.7,2.7,2.7,2.68875,2.6776252,2.666625,2.6776252,2.666625,2.666625,2.666625,2.666625,2.68875,2.7113752,2.7113752,2.73425,2.7113752,2.7,2.6776252,2.6776252,2.6776252,2.6776252,2.65575,2.61275,2.60225,2.6233752,2.6233752,2.6341252,2.6341252,2.6233752,2.61275,2.60225,2.61275,2.6341252,2.61275,2.591875,2.60225,2.644875,2.666625,2.666625,2.7113752,2.7227502,2.7227502,2.7113752,2.7227502,2.7227502,2.7113752,2.7,2.68875,2.6776252,2.65575,2.65575,2.68875,2.7,2.6776252,2.65575,2.6341252,2.6341252,2.644875,2.644875,2.644875,2.61275,2.61275,2.6233752,2.61275,2.61275,2.6233752,2.644875,2.644875,2.6341252,2.65575,2.68875,2.7227502,2.769375,2.769375,2.769375,2.7,2.65575,2.6341252,2.6341252,2.61275,2.5712502,2.5712502,2.5815,2.5815,2.60225,2.6233752,2.6233752,2.6341252,2.644875,2.6776252,2.6776252,2.6776252,2.666625,2.666625,2.666625,2.666625,2.666625,2.666625,2.644875,2.6233752,2.6233752,2.60225,2.60225,2.591875,2.591875,2.61275,2.6233752,2.6341252,2.644875,2.666625,2.68875,2.7113752,2.7458751,2.769375,2.7458751,2.68875,2.68875,2.7,2.68875,2.6776252,2.6776252,2.666625,2.65575,2.666625,2.68875,2.68875,2.68875,2.68875,2.68875,2.68875,2.68875,2.65575,2.591875,2.5815,2.5815,2.561125,2.5712502,2.6233752,2.61275,2.61275,2.6233752,2.6341252,2.61275,2.5712502,2.5815,2.6233752,2.61275,2.60225,2.60225,2.61275,2.61275,2.6233752,2.644875,2.6341252,2.6233752,2.61275,2.6233752,2.666625,2.7,2.7113752,2.666625,2.666625,2.68875,2.68875,2.68875,2.65575,2.65575,2.65575,2.666625,2.68875,2.7113752,2.7,2.7,2.7,2.7113752,2.7113752,2.6776252,2.6341252,2.61275
2.3305001,2.3305001,2.3305001,2.3475,2.3056252,2.3056252,2.3056252,2.3056252,2.3138752,2.3475,2.3475,2.3475,2.3390002,2.3475,2.37325,2.37325,2.399625,2.4176252,2.45425,2.43575,2.3907502,2.37325,2.37325,2.3475,2.43575,2.4636252,2.5017502,2.5017502,2.5113752,2.52125,2.551,2.4825,2.473,2.473,2.45425,2.45425,2.473,2.4636252,2.4636252,2.4450002,2.4636252,2.492125,2.5113752,2.5113752,2.5113752,2.5410001,2.561125,2.5310001,2.5410001,2.551,2.5815,2.5712502,2.561125,2.5712502,2.5712502,2.5310001,2.52125,2.52125,2.5310001,2.5712502,2.5712502,2.61275,2.666625,2.7113752,2.7113752,2.68875,2.666625,2.68875,2.7,2.7,2.6776252,2.61275,2.561125,2.5410001,2.561125,2.5815,2.5310001,2.5017502,2.492125,2.4825,2.473,2.4636252,2.4636252,2.4636252,2.45425,2.4636252,2.473,2.4825,2.473,2.5017502,2.5113752,2.52125,2.5113752,2.492125,2.4825,2.4825,2.5017502,2.5113752,2.52125,2.5410001,2.561125,2.561125,2.561125,2.551,2.561125,2.65575,2.7113752,2.7113752,2.73425,2.7575002,2.769375,2.7812502,2.7812502,2.7458751,2.6776252,2.591875,2.561125,2.561125,2.551,2.5017502,2.5113752,2.52125,2.5310001,2.5815,2.65575,2.65575,2.6776252,2.68875,2.7,2.7,2.68875,2.6776252,2.6776252,2.6776252,2.65575,2.591875,2.561125,2.5815,2.6233752,2.65575,2.7,2.7113752,2.7113752,2.7,2.7,2.6776252,2.666625,2.65575,2.6233752,2.6233752,2.6233752,2.6233752,2.6233752,2.644875,2.6776252,2.65575,2.644875,2.6341252,2.60225,2.591875,2.591875,2.61275,2.61275,2.561125,2.591875,2.5712502,2.5712502,2.5815,2.591875,2.5815,2.5712502,2.551,2.551,2.561125,2.591875,2.644875,2.666625,2.6776252,2.6776252,2.7,2.7113752,2.7,2.7,2.68875,2.7,2.68875,2.68875,2.68875,2.7,2.7,2.7113752,2.7113752,2.73425,2.7113752,2.7,2.7,2.68875,2.68875,2.6776252,2.666625,2.6233752,2.61275,2.6341252,2.644875,2.644875,2.6341252,2.6341252,2.6233752,2.591875,2.60225,2.6341252,2.60225,2.5815,2.5815,2.6233752,2.644875,2.65575,2.7113752,2.7227502,2.7113752,2.7113752,2.7227502,2.7227502,2.7227502,2.7113752,2.7,2.7,2.6776252,2.6776252,2.7,2.7113752,2.7,2.666625,2.65575,2.644875,2.644875,2.65575,2.65575,2.6233752,2.60225,2.61275,2.6233752,2.61275,2.6233752,2.65575,2.644875,2.644875,2.65575,2.68875,2.7227502,2.73425,2.73425,2.73425,2.6776252,2.644875,2.6341252,2.6233752,2.60225,2.5815,2.5815,2.591875,2.60225,2.6233752,2.6341252,2.65575,2.6776252,2.666625,2.68875,2.68875,2.68875,2.6776252,2.666625,2.666625,2.666625,2.666625,2.666625,2.65575,2.644875,2.6341252,2.60225,2.60225,2.5815,2.591875,2.591875,2.60225,2.6233752,2.6233752,2.65575,2.6776252,2.7227502,2.73425,2.7458751,2.7227502,2.68875,2.68875,2.68875,2.68875,2.68875,2.666625,2.666625,2.666625,2.6776252,2.7,2.68875,2.68875,2.68875,2.68875,2.68875,2.68875,2.644875,2.61275,2.60225,2.5712502,2.551,2.5712502,2.6341252,2.6341252,2.6341252,2.644875,2.65575,2.65575,2.6341252,2.644875,2.6341252,2.6233752,2.60225,2.61275,2.6341252,2.644875,2.644875,2.65575,2.65575,2.644875,2.6341252,2.6341252,2.68875,2.68875,2.7113752,2.65575,2.65575,2.666625,2.6776252,2.6776252,2.644875,2.6233752,2.6341252,2.65575,2.6776252,2.7,2.7,2.7113752,2.7227502,2.7227502,2.7227502,2.6776252,2.61275,2.591875
2.3390002,2.3475,2.3560002,2.3560002,2.3475,2.3646252,2.3221252,2.3221252,2.37325,2.3907502,2.3820002,2.37325,2.37325,2.3820002,2.4086251,2.399625,2.4086251,2.43575,2.4636252,2.45425,2.399625,2.37325,2.37325,2.3390002,2.399625,2.426625,2.52125,2.5310001,2.5410001,2.5410001,2.591875,2.492125,2.4825,2.4636252,2.45425,2.45425,2.4636252,2.45425,2.45425,2.43575,2.4636252,2.492125,2.492125,2.492125,2.492125,2.52125,2.5410001,2.52125,2.52125,2.551,2.5712502,2.561125,2.5712502,2.5815,2.5815,2.561125,2.551,2.551,2.561125,2.61275,2.65575,2.666625,2.7113752,2.7458751,2.7575002,2.73425,2.7227502,2.7227502,2.7227502,2.7227502,2.7,2.6233752,2.5712502,2.551,2.5712502,2.591875,2.551,2.5113752,2.5017502,2.492125,2.473,2.473,2.473,2.473,2.45425,2.473,2.492125,2.5017502,2.492125,2.5310001,2.52125,2.52125,2.5113752,2.4825,2.473,2.4825,2.492125,2.5113752,2.5310001,2.561125,2.5815,2.5815,2.5815,2.5815,2.5815,2.644875,2.68875,2.7,2.7113752,2.7227502,2.7458751,2.7812502,2.769375,2.7458751,2.666625,2.61275,2.5815,2.5815,2.591875,2.561125,2.5712502,2.551,2.551,2.591875,2.644875,2.644875,2.666625,2.6776252,2.68875,2.68875,2.6776252,2.666625,2.666625,2.6776252,2.65575,2.6233752,2.5815,2.591875,2.6341252,2.6776252,2.7227502,2.73425,2.73425,2.7227502,2.7113752,2.7,2.6776252,2.666625,2.61275,2.61275,2.6233752,2.6233752,2.6233752,2.644875,2.666625,2.65575,2.644875,2.6233752,2.60225,2.591875,2.60225,2.61275,2.60225,2.551,2.5815,2.5815,2.5712502,2.5815,2.591875,2.591875,2.5815,2.5815,2.5712502,2.5712502,2.5815,2.6341252,2.666625,2.6776252,2.65575,2.7,2.7,2.7,2.68875,2.68875,2.7,2.68875,2.7,2.7,2.7,2.7,2.7113752,2.7113752,2.7227502,2.7227502,2.7113752,2.7,2.7,2.68875,2.68875,2.6776252,2.65575,2.6341252,2.65575,2.65575,2.65575,2.644875,2.6341252,2.6233752,2.591875,2.60225,2.61275,2.5815,2.561125,2.5712502,2.60225,2.61275,2.644875,2.7,2.7113752,2.7113752,2.7113752,2.7227502,2.7113752,2.7113752,2.7113752,2.7,2.68875,2.6776252,2.6776252,2.68875,2.7113752,2.7,2.666625,2.666625,2.644875,2.644875,2.644875,2.65575,2.6341252,2.61275,2.6233752,2.6233752,2.6233752,2.6233752,2.666625,2.666625,2.666625,2.6776252,2.7,2.7113752,2.7227502,2.7227502,2.7227502,2.68875,2.644875,2.6341252,2.6341252,2.6233752,2.61275,2.60225,2.60225,2.6341252,2.65575,2.666625,2.6776252,2.68875,2.6776252,2.7,2.7,2.7,2.6776252,2.666625,2.666625,2.65575,2.666625,2.666625,2.65575,2.644875,2.644875,2.60225,2.60225,2.5815,2.591875,2.591875,2.591875,2.61275,2.6233752,2.6341252,2.666625,2.7113752,2.7227502,2.7227502,2.7113752,2.6776252,2.666625,2.68875,2.68875,2.68875,2.6776252,2.65575,2.666625,2.666625,2.7113752,2.7,2.68875,2.68875,2.68875,2.68875,2.68875,2.644875,2.6341252,2.6341252,2.60225,2.591875,2.60225,2.644875,2.644875,2.644875,2.65575,2.666625,2.666625,2.666625,2.666625,2.644875,2.6233752,2.60225,2.61275,2.65575,2.65575,2.666625,2.6776252,2.6776252,2.666625,2.6341252,2.6341252,2.7,2.666625,2.68875,2.6233752,2.6341252,2.65575,2.65575,2.666625,2.6233752,2.591875,2.6233752,2.65575,2.666625,2.68875,2.7,2.7113752,2.7,2.7,2.7,2.666625,2.591875,2.5712502
2.3560002,2.3820002,2.37325,2.3820002,2.3646252,2.399625,2.399625,2.5410001,2.4086251,2.4086251,2.4176252,2.4176252,2.4086251,2.426625,2.473,2.4450002,2.43575,2.43575,2.4636252,2.473,2.43575,2.4176252,2.3475,2.3390002,2.3907502,2.3907502,2.561125,2.5712502,2.5712502,2.561125,2.60225,2.473,2.4636252,2.45425,2.43575,2.43575,2.45425,2.4450002,2.43575,2.399625,2.4450002,2.473,2.473,2.473,2.473,2.5017502,2.5310001,2.52125,2.52125,2.551,2.5712502,2.561125,2.5712502,2.60225,2.60225,2.591875,2.591875,2.61275,2.6233752,2.666625,2.7,2.7113752,2.73425,2.769375,2.7812502,2.769375,2.7575002,2.73425,2.73425,2.73425,2.7113752,2.65575,2.60225,2.591875,2.60225,2.61275,2.591875,2.551,2.5310001,2.5113752,2.5017502,2.492125,2.492125,2.4825,2.473,2.4825,2.492125,2.5017502,2.5017502,2.5310001,2.52125,2.5017502,2.492125,2.473,2.45425,2.4636252,2.4825,2.5017502,2.5113752,2.5310001,2.5712502,2.591875,2.5815,2.591875,2.591875,2.6341252,2.666625,2.68875,2.7,2.7113752,2.7227502,2.7575002,2.7575002,2.73425,2.7,2.6776252,2.65575,2.644875,2.644875,2.6233752,2.60225,2.591875,2.591875,2.60225,2.6341252,2.6341252,2.65575,2.65575,2.68875,2.68875,2.666625,2.65575,2.644875,2.65575,2.65575,2.6233752,2.591875,2.5815,2.52125,2.68875,2.73425,2.73425,2.7458751,2.7227502,2.7113752,2.7,2.68875,2.666625,2.60225,2.60225,2.60225,2.60225,2.61275,2.6341252,2.65575,2.6341252,2.6233752,2.61275,2.60225,2.60225,2.61275,2.61275,2.60225,2.5712502,2.591875,2.591875,2.5815,2.591875,2.61275,2.61275,2.591875,2.591875,2.5815,2.5815,2.60225,2.6341252,2.666625,2.666625,2.644875,2.68875,2.68875,2.68875,2.6776252,2.6776252,2.68875,2.68875,2.68875,2.68875,2.7,2.7113752,2.7113752,2.7113752,2.7227502,2.7113752,2.7113752,2.7113752,2.7,2.6776252,2.666625,2.666625,2.65575,2.644875,2.65575,2.65575,2.65575,2.644875,2.6233752,2.60225,2.5815,2.5815,2.591875,2.561125,2.551,2.561125,2.5815,2.60225,2.644875,2.6776252,2.68875,2.7,2.7,2.7113752,2.7113752,2.68875,2.7,2.6776252,2.65575,2.65575,2.666625,2.666625,2.6776252,2.666625,2.666625,2.666625,2.644875,2.6233752,2.61275,2.61275,2.591875,2.591875,2.591875,2.60225,2.591875,2.591875,2.61275,2.6341252,2.644875,2.65575,2.666625,2.6776252,2.7,2.7113752,2.7,2.68875,2.666625,2.65575,2.666625,2.65575,2.6233752,2.6233752,2.6341252,2.666625,2.6776252,2.68875,2.68875,2.68875,2.68875,2.7113752,2.7113752,2.7113752,2.68875,2.666625,2.65575,2.65575,2.65575,2.65575,2.644875,2.644875,2.6341252,2.6233752,2.591875,2.591875,2.60225,2.60225,2.61275,2.6233752,2.6341252,2.644875,2.65575,2.6776252,2.7113752,2.7227502,2.7,2.6776252,2.65575,2.6776252,2.7,2.7,2.666625,2.644875,2.65575,2.666625,2.7,2.68875,2.68875,2.68875,2.68875,2.68875,2.68875,2.6341252,2.6233752,2.6233752,2.6233752,2.6233752,2.644875,2.644875,2.65575,2.65575,2.666625,2.6776252,2.6776252,2.6776252,2.6776252,2.6341252,2.61275,2.60225,2.61275,2.644875,2.666625,2.666625,2.6776252,2.666625,2.65575,2.6341252,2.6233752,2.68875,2.644875,2.6341252,2.60225,2.61275,2.644875,2.644875,2.6341252,2.591875,2.551,2.591875,2.6341252,2.65575,2.6776252,2.68875,2.7,2.6776252,2.666625,2.6776252,2.644875,2.5815,2.551
2.3907502,2.4086251,2.37325,2.3820002,2.3646252,2.5712502,2.591875,2.591875,2.591875,2.591875,2.426625,2.426625,2.4176252,2.43575,2.473,2.4636252,2.4450002,2.4450002,2.45425,2.473,2.473,2.45425,2.3305001,2.3305001,2.3907502,2.3907502,2.60225,2.60225,2.6341252,2.6341252,2.60225,2.45425,2.5113752,2.45425,2.399625,2.4636252,2.473,2.4450002,2.4450002,2.399625,2.43575,2.4636252,2.4636252,2.4636252,2.4636252,2.473,2.5017502,2.52125,2.5310001,2.5712502,2.5815,2.5815,2.5815,2.6233752,2.6341252,2.6233752,2.6341252,2.6341252,2.6341252,2.6776252,2.6776252,2.7113752,2.73425,2.769375,2.7812502,2.769375,2.7575002,2.73425,2.7227502,2.7113752,2.7,2.65575,2.6341252,2.6233752,2.65575,2.65575,2.644875,2.60225,2.5815,2.561125,2.5410001,2.5310001,2.52125,2.4825,2.473,2.4825,2.492125,2.4825,2.473,2.5017502,2.5017502,2.4636252,2.4636252,2.45425,2.4450002,2.43575,2.4636252,2.4825,2.492125,2.5017502,2.52125,2.561125,2.5712502,2.5712502,2.5712502,2.61275,2.65575,2.6776252,2.68875,2.7,2.7113752,2.7458751,2.7458751,2.73425,2.73425,2.7113752,2.7,2.7,2.68875,2.6776252,2.6341252,2.6233752,2.61275,2.6233752,2.6341252,2.6233752,2.644875,2.644875,2.6776252,2.666625,2.666625,2.65575,2.644875,2.644875,2.6341252,2.61275,2.5815,2.551,2.561125,2.666625,2.7113752,2.7113752,2.73425,2.7,2.7,2.68875,2.6776252,2.644875,2.5815,2.5815,2.591875,2.591875,2.61275,2.6233752,2.6341252,2.6233752,2.61275,2.61275,2.60225,2.6233752,2.6233752,2.61275,2.60225,2.591875,2.61275,2.6233752,2.60225,2.6233752,2.6233752,2.6341252,2.6233752,2.6233752,2.61275,2.60225,2.61275,2.644875,2.666625,2.666625,2.65575,2.6776252,2.6776252,2.6776252,2.6776252,2.666625,2.6776252,2.6776252,2.6776252,2.68875,2.7,2.7113752,2.7113752,2.7113752,2.7227502,2.7113752,2.7,2.7,2.7,2.666625,2.644875,2.644875,2.644875,2.6341252,2.6341252,2.644875,2.644875,2.6341252,2.6233752,2.60225,2.561125,2.5712502,2.5815,2.5712502,2.551,2.551,2.5712502,2.591875,2.6233752,2.666625,2.6776252,2.6776252,2.6776252,2.6776252,2.6776252,2.666625,2.6776252,2.644875,2.644875,2.65575,2.65575,2.65575,2.68875,2.666625,2.666625,2.6776252,2.666625,2.6341252,2.60225,2.60225,2.5815,2.5815,2.5815,2.5815,2.591875,2.5815,2.591875,2.60225,2.60225,2.6233752,2.6341252,2.6341252,2.65575,2.65575,2.6341252,2.644875,2.6341252,2.6233752,2.6341252,2.6341252,2.6233752,2.6233752,2.6341252,2.65575,2.68875,2.7,2.7,2.68875,2.7,2.7113752,2.7113752,2.7227502,2.7113752,2.666625,2.65575,2.65575,2.65575,2.666625,2.644875,2.644875,2.644875,2.6233752,2.61275,2.60225,2.6233752,2.6233752,2.6233752,2.6341252,2.6341252,2.644875,2.644875,2.666625,2.68875,2.68875,2.68875,2.666625,2.644875,2.666625,2.7,2.7,2.65575,2.6233752,2.6341252,2.65575,2.666625,2.666625,2.6776252,2.65575,2.65575,2.666625,2.666625,2.6233752,2.60225,2.60225,2.60225,2.61275,2.6341252,2.6341252,2.644875,2.644875,2.666625,2.6776252,2.6776252,2.6776252,2.6776252,2.644875,2.61275,2.60225,2.61275,2.6341252,2.644875,2.666625,2.666625,2.666625,2.65575,2.6233752,2.61275,2.65575,2.6233752,2.60225,2.5815,2.591875,2.60225,2.60225,2.591875,2.5712502,2.5310001,2.5815,2.6233752,2.644875,2.666625,2.68875,2.6776252,2.666625,2.666625,2.666625,2.6341252,2.5712502,2.5410001
2.3907502,2.399625,2.3475,2.3646252,2.3305001,2.3305001,2.591875,2.60225,2.60225,2.61275,2.60225,2.426625,2.426625,2.4636252,2.4636252,2.473,2.4636252,2.45425,2.473,2.492125,2.492125,2.5017502,2.5113752,2.5017502,2.3907502,2.3907502,2.61275,2.6341252,2.68875,2.68875,2.61275,2.5310001,2.591875,2.561125,2.3907502,2.5017502,2.4825,2.473,2.4636252,2.4450002,2.4450002,2.45425,2.4636252,2.4636252,2.4636252,2.4636252,2.4825,2.52125,2.5410001,2.5712502,2.591875,2.5815,2.591875,2.6341252,2.666625,2.644875,2.644875,2.6233752,2.60225,2.644875,2.65575,2.666625,2.7113752,2.7458751,2.7458751,2.73425,2.73425,2.7227502,2.7,2.68875,2.68875,2.666625,2.644875,2.65575,2.68875,2.666625,2.666625,2.65575,2.6341252,2.61275,2.5815,2.5712502,2.551,2.492125,2.473,2.4636252,2.4636252,2.45425,2.43575,2.4636252,2.45425,2.426625,2.426625,2.426625,2.426625,2.4176252,2.43575,2.4636252,2.4636252,2.473,2.5017502,2.5410001,2.561125,2.561125,2.5712502,2.5815,2.644875,2.666625,2.68875,2.68875,2.7227502,2.769375,2.769375,2.7575002,2.7458751,2.7458751,2.73425,2.7227502,2.73425,2.7113752,2.644875,2.644875,2.6341252,2.6233752,2.6233752,2.61275,2.6341252,2.6341252,2.666625,2.666625,2.65575,2.644875,2.6341252,2.644875,2.6341252,2.60225,2.5815,2.561125,2.60225,2.6776252,2.6776252,2.7,2.7,2.6776252,2.6776252,2.68875,2.666625,2.6341252,2.5815,2.5815,2.5815,2.591875,2.61275,2.6233752,2.6233752,2.60225,2.591875,2.61275,2.6233752,2.644875,2.644875,2.644875,2.6341252,2.6341252,2.65575,2.644875,2.6341252,2.6233752,2.6341252,2.6341252,2.6341252,2.6341252,2.6233752,2.61275,2.6233752,2.65575,2.68875,2.6776252,2.6776252,2.6776252,2.6776252,2.666625,2.65575,2.65575,2.666625,2.6341252,2.644875,2.65575,2.6776252,2.68875,2.7,2.7,2.7,2.7,2.68875,2.68875,2.6776252,2.65575,2.644875,2.6341252,2.6341252,2.6341252,2.644875,2.644875,2.6341252,2.644875,2.6341252,2.60225,2.5815,2.591875,2.591875,2.5815,2.561125,2.561125,2.5712502,2.5815,2.61275,2.644875,2.644875,2.65575,2.65575,2.644875,2.65575,2.65575,2.65575,2.644875,2.6341252,2.65575,2.65575,2.65575,2.68875,2.7,2.7,2.7,2.7,2.666625,2.6341252,2.6341252,2.6233752,2.591875,2.5815,2.5815,2.591875,2.5815,2.591875,2.60225,2.60225,2.60225,2.61275,2.61275,2.61275,2.6233752,2.60225,2.60225,2.60225,2.60225,2.60225,2.60225,2.61275,2.61275,2.6233752,2.644875,2.6776252,2.68875,2.6776252,2.6776252,2.68875,2.7,2.7,2.7,2.7,2.666625,2.644875,2.666625,2.666625,2.65575,2.644875,2.6341252,2.6341252,2.6233752,2.6233752,2.61275,2.6233752,2.6233752,2.6341252,2.6341252,2.6341252,2.6341252,2.6341252,2.65575,2.6776252,2.68875,2.68875,2.6776252,2.666625,2.7,2.7227502,2.7113752,2.666625,2.6341252,2.6341252,2.6341252,2.644875,2.644875,2.644875,2.6341252,2.6233752,2.644875,2.644875,2.60225,2.5712502,2.5712502,2.5712502,2.5712502,2.61275,2.61275,2.60225,2.61275,2.6341252,2.6341252,2.6341252,2.6341252,2.6341252,2.61275,2.60225,2.591875,2.60225,2.6233752,2.644875,2.65575,2.666625,2.6776252,2.65575,2.6341252,2.6233752,2.666625,2.6233752,2.591875,2.591875,2.5815,2.5712502,2.5712502,2.5815,2.561125,2.5310001,2.5712502,2.6233752,2.65575,2.6776252,2.68875,2.666625,2.65575,2.65575,2.666625,2.644875,2.591875,2.5712502
2.4176252,2.399625,2.3646252,2.3820002,2.3560002,2.3305001,2.61275,2.60225,2.60225,2.60225,2.2652502,2.4086251,2.4176252,2.43575,2.4636252,2.4636252,2.45425,2.45425,2.473,2.4825,2.4825,2.4636252,2.4450002,2.2340002,2.21875,2.21875,2.561125,2.5410001,2.5017502,2.6341252,2.60225,2.5712502,2.5712502,2.5712502,2.5410001,2.492125,2.4825,2.473,2.473,2.4636252,2.45425,2.4636252,2.473,2.473,2.473,2.4825,2.5017502,2.52125,2.5410001,2.5712502,2.5815,2.5815,2.60225,2.6233752,2.65575,2.644875,2.644875,2.6341252,2.6233752,2.666625,2.65575,2.644875,2.68875,2.7113752,2.7227502,2.7227502,2.7227502,2.7,2.68875,2.6776252,2.6776252,2.666625,2.65575,2.666625,2.7,2.666625,2.6776252,2.65575,2.644875,2.6341252,2.61275,2.591875,2.551,2.492125,2.4636252,2.4636252,2.45425,2.43575,2.426625,2.4450002,2.43575,2.4086251,2.4176252,2.4176252,2.4176252,2.4086251,2.43575,2.45425,2.4636252,2.473,2.5113752,2.561125,2.5712502,2.5712502,2.5815,2.5712502,2.6233752,2.666625,2.6776252,2.68875,2.7113752,2.769375,2.769375,2.769375,2.7575002,2.7575002,2.7575002,2.7458751,2.7458751,2.7113752,2.666625,2.666625,2.644875,2.6341252,2.6341252,2.6233752,2.6233752,2.6341252,2.65575,2.65575,2.644875,2.6341252,2.6341252,2.6341252,2.644875,2.61275,2.60225,2.591875,2.6341252,2.6776252,2.6776252,2.68875,2.68875,2.666625,2.666625,2.666625,2.65575,2.6233752,2.5712502,2.5712502,2.5712502,2.5712502,2.60225,2.61275,2.61275,2.591875,2.5712502,2.60225,2.644875,2.644875,2.65575,2.644875,2.644875,2.666625,2.6776252,2.666625,2.6341252,2.60225,2.61275,2.61275,2.61275,2.61275,2.60225,2.61275,2.60225,2.644875,2.7,2.68875,2.68875,2.7,2.6776252,2.65575,2.65575,2.65575,2.644875,2.61275,2.61275,2.6341252,2.644875,2.6776252,2.6776252,2.666625,2.6776252,2.6776252,2.6776252,2.6776252,2.65575,2.6341252,2.6233752,2.6341252,2.6341252,2.6233752,2.644875,2.644875,2.644875,2.65575,2.644875,2.6233752,2.61275,2.60225,2.60225,2.591875,2.5712502,2.561125,2.561125,2.551,2.591875,2.6233752,2.6341252,2.6341252,2.6341252,2.644875,2.644875,2.644875,2.65575,2.644875,2.644875,2.644875,2.65575,2.65575,2.7113752,2.7113752,2.7113752,2.7227502,2.7227502,2.7,2.666625,2.65575,2.666625,2.591875,2.5815,2.5815,2.5815,2.60225,2.591875,2.60225,2.60225,2.61275,2.61275,2.60225,2.591875,2.61275,2.5815,2.60225,2.60225,2.591875,2.5815,2.5815,2.591875,2.61275,2.6233752,2.644875,2.666625,2.65575,2.666625,2.666625,2.666625,2.68875,2.68875,2.68875,2.6776252,2.644875,2.6341252,2.644875,2.644875,2.6341252,2.6233752,2.6341252,2.6341252,2.6233752,2.6341252,2.6233752,2.6341252,2.6233752,2.6341252,2.644875,2.644875,2.644875,2.644875,2.666625,2.7227502,2.73425,2.73425,2.73425,2.7227502,2.769375,2.769375,2.7458751,2.68875,2.644875,2.6233752,2.6233752,2.6233752,2.6233752,2.6233752,2.6233752,2.6233752,2.6233752,2.6341252,2.5815,2.561125,2.5712502,2.561125,2.561125,2.591875,2.591875,2.5815,2.591875,2.61275,2.61275,2.591875,2.60225,2.61275,2.60225,2.591875,2.591875,2.60225,2.6341252,2.65575,2.666625,2.6776252,2.6776252,2.65575,2.65575,2.6776252,2.68875,2.6341252,2.60225,2.60225,2.591875,2.5815,2.5815,2.5815,2.561125,2.5310001,2.5712502,2.6233752,2.6341252,2.644875,2.65575,2.644875,2.644875,2.6341252,2.65575,2.65575,2.60225,2.5712502
2.4176252,2.4176252,2.3560002,2.37325,2.3475,2.3305001,2.61275,2.591875,2.27325,2.27325,2.257375,2.3907502,2.399625,2.426625,2.45425,2.4636252,2.45425,2.4450002,2.473,2.473,2.45425,2.43575,2.43575,2.24175,2.21875,2.21875,2.5017502,2.5310001,2.5113752,2.5410001,2.5712502,2.5712502,2.5712502,2.5712502,2.5410001,2.492125,2.4825,2.473,2.4825,2.473,2.45425,2.4636252,2.4825,2.4825,2.4825,2.492125,2.5113752,2.5310001,2.5410001,2.561125,2.5712502,2.5712502,2.591875,2.61275,2.65575,2.6341252,2.6341252,2.644875,2.644875,2.68875,2.6776252,2.6776252,2.68875,2.7,2.7113752,2.7113752,2.7,2.68875,2.6776252,2.666625,2.65575,2.65575,2.644875,2.666625,2.68875,2.666625,2.666625,2.65575,2.644875,2.644875,2.6233752,2.60225,2.561125,2.4825,2.4636252,2.45425,2.4450002,2.43575,2.4176252,2.426625,2.4450002,2.4176252,2.4176252,2.426625,2.426625,2.4176252,2.43575,2.473,2.4825,2.4825,2.52125,2.5712502,2.5712502,2.561125,2.5815,2.561125,2.60225,2.644875,2.65575,2.666625,2.6776252,2.7227502,2.7227502,2.7458751,2.7458751,2.7458751,2.73425,2.7458751,2.7575002,2.7227502,2.68875,2.68875,2.6776252,2.65575,2.644875,2.6341252,2.6341252,2.6233752,2.644875,2.644875,2.6341252,2.6233752,2.6341252,2.6233752,2.6233752,2.61275,2.6233752,2.6233752,2.644875,2.6776252,2.666625,2.6776252,2.6776252,2.65575,2.644875,2.644875,2.6341252,2.61275,2.561125,2.551,2.551,2.561125,2.5815,2.60225,2.591875,2.561125,2.551,2.5815,2.6341252,2.644875,2.6341252,2.6341252,2.61275,2.6341252,2.65575,2.65575,2.61275,2.5815,2.5712502,2.5815,2.5815,2.60225,2.591875,2.60225,2.60225,2.644875,2.68875,2.68875,2.68875,2.7,2.666625,2.65575,2.65575,2.65575,2.65575,2.61275,2.61275,2.6341252,2.6341252,2.6776252,2.6776252,2.666625,2.644875,2.644875,2.644875,2.644875,2.6233752,2.61275,2.60225,2.60225,2.61275,2.61275,2.6233752,2.6233752,2.6341252,2.65575,2.644875,2.6233752,2.61275,2.60225,2.60225,2.60225,2.5712502,2.561125,2.551,2.551,2.5712502,2.60225,2.6233752,2.6341252,2.6341252,2.6341252,2.644875,2.644875,2.666625,2.644875,2.65575,2.65575,2.65575,2.65575,2.7227502,2.73425,2.73425,2.73425,2.7227502,2.7113752,2.6776252,2.6776252,2.6776252,2.60225,2.5815,2.5712502,2.5815,2.5815,2.591875,2.61275,2.61275,2.61275,2.591875,2.591875,2.591875,2.60225,2.5815,2.591875,2.591875,2.5815,2.5712502,2.5712502,2.60225,2.6233752,2.6233752,2.644875,2.666625,2.666625,2.666625,2.68875,2.6776252,2.6776252,2.666625,2.666625,2.65575,2.6341252,2.6233752,2.61275,2.6341252,2.6233752,2.61275,2.6233752,2.6341252,2.6233752,2.6341252,2.6341252,2.6341252,2.6233752,2.644875,2.666625,2.666625,2.666625,2.644875,2.68875,2.73425,2.7575002,2.7575002,2.7575002,2.7575002,2.7812502,2.79325,2.7575002,2.68875,2.644875,2.61275,2.591875,2.591875,2.60225,2.60225,2.60225,2.591875,2.591875,2.60225,2.561125,2.561125,2.5712502,2.551,2.551,2.60225,2.591875,2.5712502,2.591875,2.61275,2.61275,2.60225,2.61275,2.6341252,2.61275,2.61275,2.6233752,2.6341252,2.65575,2.666625,2.666625,2.68875,2.68875,2.6341252,2.65575,2.7227502,2.7,2.6341252,2.60225,2.60225,2.60225,2.591875,2.591875,2.60225,2.561125,2.52125,2.561125,2.61275,2.6341252,2.6341252,2.6341252,2.6233752,2.6233752,2.6233752,2.644875,2.644875,2.5815,2.561125
2.4450002,2.4450002,2.3390002,2.3560002,2.3305001,2.3221252,2.28125,2.28125,2.28125,2.27325,2.2652502,2.3907502,2.3907502,2.45425,2.473,2.4825,2.473,2.4636252,2.473,2.473,2.45425,2.43575,2.426625,2.399625,2.3646252,2.4176252,2.492125,2.5310001,2.492125,2.52125,2.5712502,2.591875,2.60225,2.60225,2.5815,2.5310001,2.5113752,2.5017502,2.492125,2.492125,2.473,2.4825,2.4825,2.4825,2.492125,2.5017502,2.52125,2.5310001,2.5410001,2.551,2.5712502,2.5712502,2.5815,2.60225,2.644875,2.6341252,2.6233752,2.6341252,2.644875,2.666625,2.6776252,2.644875,2.65575,2.666625,2.6776252,2.6776252,2.666625,2.65575,2.644875,2.644875,2.6341252,2.6233752,2.6233752,2.65575,2.6776252,2.666625,2.666625,2.65575,2.644875,2.644875,2.6341252,2.61275,2.5712502,2.492125,2.4636252,2.45425,2.45425,2.4450002,2.43575,2.43575,2.4450002,2.4176252,2.426625,2.43575,2.426625,2.4176252,2.43575,2.4825,2.492125,2.492125,2.52125,2.5712502,2.5712502,2.561125,2.5815,2.551,2.591875,2.6233752,2.65575,2.644875,2.666625,2.7113752,2.7113752,2.7227502,2.73425,2.73425,2.73425,2.73425,2.7575002,2.7458751,2.7113752,2.7113752,2.68875,2.666625,2.666625,2.666625,2.644875,2.6233752,2.644875,2.644875,2.6341252,2.6233752,2.6233752,2.6233752,2.6341252,2.61275,2.6233752,2.61275,2.6341252,2.644875,2.644875,2.644875,2.65575,2.644875,2.6233752,2.61275,2.60225,2.591875,2.5410001,2.5410001,2.551,2.561125,2.5815,2.591875,2.591875,2.5712502,2.561125,2.591875,2.6341252,2.644875,2.6341252,2.6233752,2.5815,2.591875,2.61275,2.61275,2.5815,2.551,2.5410001,2.5410001,2.561125,2.591875,2.591875,2.60225,2.61275,2.644875,2.68875,2.6776252,2.6776252,2.6776252,2.65575,2.644875,2.6341252,2.644875,2.6341252,2.61275,2.60225,2.61275,2.6341252,2.65575,2.666625,2.65575,2.6341252,2.6233752,2.61275,2.6233752,2.61275,2.591875,2.5815,2.5815,2.60225,2.60225,2.61275,2.61275,2.6233752,2.6341252,2.644875,2.6233752,2.61275,2.61275,2.61275,2.60225,2.5815,2.5712502,2.551,2.551,2.5712502,2.60225,2.61275,2.6233752,2.6233752,2.6233752,2.6341252,2.6341252,2.65575,2.644875,2.644875,2.65575,2.644875,2.65575,2.7227502,2.73425,2.7458751,2.7458751,2.7458751,2.7113752,2.68875,2.68875,2.68875,2.6233752,2.591875,2.5815,2.5815,2.591875,2.60225,2.61275,2.61275,2.61275,2.60225,2.591875,2.60225,2.61275,2.5712502,2.5815,2.591875,2.5815,2.5712502,2.5712502,2.60225,2.6233752,2.6233752,2.644875,2.666625,2.666625,2.666625,2.68875,2.666625,2.666625,2.65575,2.65575,2.644875,2.6233752,2.61275,2.61275,2.6233752,2.6233752,2.61275,2.61275,2.61275,2.61275,2.6233752,2.6233752,2.6233752,2.6233752,2.644875,2.6776252,2.6776252,2.666625,2.65575,2.68875,2.73425,2.7575002,2.769375,2.769375,2.7458751,2.769375,2.7812502,2.7575002,2.6776252,2.6341252,2.60225,2.5712502,2.5712502,2.5712502,2.5815,2.5712502,2.561125,2.5815,2.561125,2.5310001,2.551,2.5712502,2.5410001,2.5310001,2.61275,2.60225,2.5815,2.60225,2.6233752,2.6233752,2.6233752,2.644875,2.6776252,2.65575,2.65575,2.666625,2.6776252,2.68875,2.6776252,2.6776252,2.7,2.7,2.6341252,2.644875,2.68875,2.6776252,2.6341252,2.60225,2.61275,2.60225,2.60225,2.60225,2.60225,2.5712502,2.5310001,2.5712502,2.61275,2.6341252,2.6341252,2.6233752,2.61275,2.591875,2.60225,2.61275,2.61275,2.5712502,2.561125
2.5113752,2.4825,2.3907502,2.399625,2.3646252,2.3475,2.3056252,2.28125,2.27325,2.257375,2.257375,2.3907502,2.3907502,2.5310001,2.5310001,2.52125,2.5113752,2.492125,2.492125,2.4825,2.473,2.45425,2.426625,2.4086251,2.3820002,2.4450002,2.473,2.5712502,2.4825,2.561125,2.591875,2.61275,2.61275,2.6233752,2.61275,2.5712502,2.5410001,2.5310001,2.5310001,2.52125,2.5017502,2.492125,2.4825,2.473,2.492125,2.492125,2.52125,2.5113752,2.52125,2.5310001,2.5410001,2.551,2.5815,2.591875,2.644875,2.6233752,2.61275,2.6233752,2.6341252,2.61275,2.6233752,2.591875,2.591875,2.60225,2.6341252,2.644875,2.644875,2.61275,2.591875,2.60225,2.60225,2.591875,2.61275,2.6341252,2.666625,2.666625,2.65575,2.644875,2.644875,2.644875,2.644875,2.6341252,2.591875,2.5310001,2.5017502,2.492125,2.492125,2.4825,2.4825,2.473,2.473,2.43575,2.4450002,2.4636252,2.45425,2.43575,2.45425,2.492125,2.5017502,2.5017502,2.5410001,2.5815,2.60225,2.5815,2.60225,2.5712502,2.6233752,2.644875,2.65575,2.65575,2.6776252,2.7227502,2.7227502,2.7227502,2.7227502,2.73425,2.73425,2.7458751,2.769375,2.7458751,2.7227502,2.7113752,2.7,2.6776252,2.666625,2.666625,2.65575,2.61275,2.6233752,2.6233752,2.61275,2.60225,2.6233752,2.6233752,2.6233752,2.6233752,2.61275,2.60225,2.60225,2.6233752,2.6233752,2.61275,2.6233752,2.60225,2.561125,2.551,2.551,2.5410001,2.52125,2.52125,2.5310001,2.5410001,2.5712502,2.5815,2.591875,2.5815,2.591875,2.61275,2.644875,2.65575,2.65575,2.6341252,2.5815,2.5815,2.60225,2.60225,2.5712502,2.5310001,2.5310001,2.5310001,2.5410001,2.5815,2.60225,2.60225,2.61275,2.6341252,2.6776252,2.666625,2.666625,2.644875,2.6233752,2.61275,2.6233752,2.6233752,2.6233752,2.60225,2.591875,2.60225,2.6341252,2.65575,2.65575,2.644875,2.6233752,2.6233752,2.61275,2.61275,2.60225,2.591875,2.5712502,2.591875,2.591875,2.591875,2.60225,2.61275,2.61275,2.6341252,2.6341252,2.6233752,2.61275,2.61275,2.61275,2.61275,2.591875,2.5815,2.5712502,2.561125,2.5815,2.591875,2.61275,2.61275,2.6233752,2.6233752,2.6233752,2.6341252,2.6341252,2.6233752,2.6341252,2.644875,2.644875,2.644875,2.7113752,2.7113752,2.7458751,2.7458751,2.7458751,2.7113752,2.68875,2.6776252,2.6776252,2.6233752,2.591875,2.5815,2.591875,2.591875,2.61275,2.6233752,2.61275,2.61275,2.61275,2.60225,2.60225,2.61275,2.591875,2.591875,2.5815,2.5712502,2.561125,2.5712502,2.591875,2.60225,2.60225,2.6233752,2.644875,2.644875,2.644875,2.666625,2.666625,2.666625,2.65575,2.65575,2.65575,2.644875,2.6341252,2.6341252,2.6233752,2.6233752,2.60225,2.60225,2.61275,2.61275,2.6233752,2.61275,2.6233752,2.6341252,2.65575,2.68875,2.68875,2.6776252,2.666625,2.68875,2.7113752,2.7458751,2.7458751,2.73425,2.7113752,2.7227502,2.73425,2.7227502,2.65575,2.61275,2.5815,2.561125,2.551,2.551,2.561125,2.5410001,2.5410001,2.5712502,2.5712502,2.551,2.5712502,2.5712502,2.5410001,2.5410001,2.60225,2.60225,2.5815,2.591875,2.61275,2.61275,2.6341252,2.65575,2.7,2.6776252,2.6776252,2.6776252,2.7,2.7,2.68875,2.68875,2.7,2.7,2.6341252,2.6233752,2.6341252,2.6341252,2.6233752,2.591875,2.591875,2.591875,2.591875,2.60225,2.61275,2.561125,2.551,2.5815,2.61275,2.6233752,2.61275,2.591875,2.5712502,2.561125,2.561125,2.5712502,2.561125,2.551,2.551
2.5410001,2.4450002,2.426625,2.43575,2.399625,2.3907502,2.3390002,2.3056252,2.2975001,2.2652502,2.2495,2.5310001,2.561125,2.5712502,2.561125,2.551,2.5410001,2.52125,2.5113752,2.5017502,2.473,2.45425,2.4450002,2.426625,2.3907502,2.426625,2.4176252,2.4086251,2.45425,2.561125,2.591875,2.61275,2.591875,2.6233752,2.6233752,2.591875,2.5712502,2.551,2.551,2.5310001,2.52125,2.52125,2.5017502,2.492125,2.5113752,2.5113752,2.5310001,2.52125,2.5310001,2.5410001,2.551,2.551,2.591875,2.591875,2.6341252,2.61275,2.60225,2.61275,2.61275,2.5712502,2.561125,2.5410001,2.5410001,2.561125,2.591875,2.60225,2.61275,2.5712502,2.551,2.561125,2.5712502,2.5712502,2.5815,2.6233752,2.666625,2.65575,2.65575,2.644875,2.65575,2.644875,2.644875,2.6341252,2.60225,2.5310001,2.5113752,2.5113752,2.5017502,2.5017502,2.5113752,2.5113752,2.492125,2.43575,2.45425,2.473,2.4636252,2.45425,2.492125,2.492125,2.492125,2.5113752,2.551,2.61275,2.6233752,2.6233752,2.6233752,2.6233752,2.65575,2.6776252,2.6776252,2.6776252,2.7,2.7227502,2.7227502,2.7227502,2.7227502,2.7227502,2.73425,2.7458751,2.7575002,2.769375,2.7458751,2.7227502,2.7,2.6776252,2.666625,2.666625,2.644875,2.591875,2.60225,2.591875,2.591875,2.591875,2.60225,2.60225,2.60225,2.60225,2.60225,2.60225,2.591875,2.60225,2.60225,2.591875,2.591875,2.591875,2.551,2.5310001,2.5310001,2.52125,2.5113752,2.5017502,2.5113752,2.52125,2.551,2.561125,2.5815,2.60225,2.60225,2.6341252,2.666625,2.6776252,2.6776252,2.65575,2.61275,2.61275,2.60225,2.60225,2.5815,2.561125,2.551,2.551,2.5712502,2.61275,2.6233752,2.6233752,2.6233752,2.644875,2.666625,2.644875,2.644875,2.6341252,2.61275,2.60225,2.60225,2.6233752,2.6233752,2.591875,2.591875,2.6233752,2.6341252,2.644875,2.65575,2.6341252,2.6233752,2.61275,2.60225,2.61275,2.60225,2.5815,2.5815,2.591875,2.60225,2.60225,2.60225,2.61275,2.61275,2.6233752,2.6341252,2.6233752,2.61275,2.61275,2.60225,2.60225,2.591875,2.5815,2.5712502,2.561125,2.5815,2.60225,2.60225,2.61275,2.6233752,2.6233752,2.6233752,2.6233752,2.6233752,2.60225,2.61275,2.6341252,2.6341252,2.6341252,2.7,2.7,2.73425,2.7458751,2.7458751,2.7113752,2.666625,2.65575,2.65575,2.60225,2.5815,2.5712502,2.5712502,2.591875,2.591875,2.61275,2.60225,2.60225,2.61275,2.61275,2.6341252,2.6233752,2.6233752,2.61275,2.60225,2.591875,2.5815,2.5815,2.591875,2.60225,2.60225,2.61275,2.61275,2.61275,2.6233752,2.644875,2.65575,2.666625,2.65575,2.65575,2.644875,2.6341252,2.6341252,2.6233752,2.6341252,2.6233752,2.60225,2.60225,2.61275,2.6233752,2.6341252,2.6233752,2.6341252,2.6341252,2.65575,2.7,2.7,2.68875,2.68875,2.666625,2.6776252,2.7,2.7113752,2.68875,2.6776252,2.6776252,2.68875,2.6776252,2.6341252,2.60225,2.5815,2.551,2.551,2.551,2.551,2.5310001,2.5310001,2.5815,2.60225,2.60225,2.644875,2.60225,2.5712502,2.5712502,2.60225,2.60225,2.591875,2.591875,2.591875,2.60225,2.61275,2.6341252,2.666625,2.65575,2.666625,2.666625,2.6776252,2.7,2.7,2.7,2.7113752,2.7,2.6341252,2.60225,2.61275,2.60225,2.591875,2.561125,2.5712502,2.561125,2.561125,2.5712502,2.591875,2.561125,2.551,2.5712502,2.591875,2.5815,2.551,2.52125,2.5113752,2.5113752,2.5113752,2.5017502,2.5017502,2.52125,2.52125
2.551,2.4176252,2.426625,2.4450002,2.4176252,2.3907502,2.3390002,2.3056252,2.3056252,2.27325,2.2652502,2.28125,2.5410001,2.5712502,2.561125,2.551,2.551,2.52125,2.5113752,2.5017502,2.4825,2.4636252,2.4450002,2.426625,2.399625,2.4176252,2.4176252,2.426625,2.4450002,2.492125,2.5712502,2.5815,2.5712502,2.61275,2.6233752,2.6341252,2.6233752,2.5815,2.5815,2.5712502,2.561125,2.551,2.5410001,2.5310001,2.551,2.551,2.561125,2.551,2.561125,2.5712502,2.5712502,2.5815,2.60225,2.591875,2.6341252,2.6233752,2.60225,2.591875,2.5815,2.5410001,2.5310001,2.52125,2.52125,2.52125,2.5310001,2.551,2.551,2.5310001,2.5310001,2.5410001,2.551,2.551,2.5712502,2.61275,2.65575,2.65575,2.644875,2.644875,2.644875,2.644875,2.6341252,2.6341252,2.61275,2.5410001,2.5310001,2.52125,2.52125,2.52125,2.5310001,2.52125,2.52125,2.45425,2.4450002,2.4825,2.473,2.4636252,2.5113752,2.492125,2.5017502,2.5017502,2.561125,2.6233752,2.644875,2.644875,2.644875,2.644875,2.6776252,2.68875,2.68875,2.68875,2.7,2.7113752,2.7113752,2.7,2.7,2.7,2.7,2.7113752,2.7458751,2.7575002,2.7458751,2.73425,2.7,2.6776252,2.65575,2.65575,2.6341252,2.5815,2.5815,2.5815,2.5712502,2.5712502,2.591875,2.591875,2.591875,2.5815,2.591875,2.5712502,2.5815,2.5815,2.5815,2.5815,2.5815,2.5815,2.551,2.5410001,2.5410001,2.5310001,2.52125,2.52125,2.52125,2.5410001,2.561125,2.561125,2.5815,2.60225,2.61275,2.6341252,2.666625,2.6776252,2.6776252,2.666625,2.6233752,2.6233752,2.6233752,2.6233752,2.61275,2.591875,2.591875,2.591875,2.591875,2.6233752,2.6341252,2.6341252,2.6341252,2.6341252,2.6341252,2.6233752,2.6233752,2.61275,2.60225,2.591875,2.60225,2.61275,2.61275,2.591875,2.5815,2.60225,2.61275,2.6233752,2.6233752,2.61275,2.60225,2.591875,2.5815,2.591875,2.591875,2.591875,2.5815,2.5815,2.60225,2.61275,2.61275,2.61275,2.61275,2.6233752,2.6233752,2.61275,2.60225,2.60225,2.60225,2.60225,2.5815,2.5815,2.5815,2.5712502,2.5815,2.60225,2.61275,2.61275,2.61275,2.60225,2.61275,2.61275,2.60225,2.5815,2.60225,2.6233752,2.61275,2.61275,2.68875,2.68875,2.7113752,2.7227502,2.7227502,2.7,2.65575,2.65575,2.6341252,2.591875,2.5712502,2.551,2.561125,2.5815,2.60225,2.61275,2.60225,2.591875,2.60225,2.61275,2.61275,2.6233752,2.6233752,2.6233752,2.61275,2.61275,2.61275,2.60225,2.60225,2.60225,2.591875,2.60225,2.60225,2.591875,2.60225,2.6233752,2.644875,2.644875,2.6341252,2.6341252,2.6341252,2.6341252,2.6341252,2.61275,2.6341252,2.60225,2.591875,2.591875,2.591875,2.61275,2.6233752,2.6233752,2.6233752,2.6233752,2.644875,2.666625,2.6776252,2.666625,2.6776252,2.65575,2.68875,2.7,2.7,2.68875,2.6776252,2.6776252,2.6776252,2.65575,2.6233752,2.5815,2.561125,2.551,2.5410001,2.551,2.551,2.5310001,2.5310001,2.591875,2.61275,2.61275,2.6776252,2.6233752,2.5712502,2.561125,2.5815,2.591875,2.561125,2.551,2.551,2.5712502,2.60225,2.6233752,2.65575,2.65575,2.666625,2.666625,2.68875,2.7,2.7113752,2.68875,2.7113752,2.7,2.6341252,2.60225,2.591875,2.60225,2.5712502,2.5410001,2.561125,2.551,2.551,2.551,2.561125,2.551,2.551,2.561125,2.5815,2.5712502,2.5410001,2.492125,2.473,2.4825,2.473,2.4636252,2.4636252,2.473,2.4825
2.551,2.4086251,2.4176252,2.426625,2.4086251,2.3820002,2.3221252,2.289375,2.289375,2.27325,2.28125,2.28125,2.5113752,2.5410001,2.5410001,2.5410001,2.5410001,2.5113752,2.5113752,2.5017502,2.4825,2.4636252,2.45425,2.426625,2.4086251,2.4086251,2.426625,2.43575,2.43575,2.43575,2.5113752,2.551,2.561125,2.5815,2.60225,2.6341252,2.644875,2.60225,2.60225,2.60225,2.591875,2.591875,2.5815,2.5712502,2.5712502,2.5712502,2.5815,2.5712502,2.5815,2.5815,2.5815,2.5815,2.60225,2.591875,2.6341252,2.61275,2.60225,2.5815,2.561125,2.5310001,2.5310001,2.5113752,2.492125,2.492125,2.5113752,2.5310001,2.5310001,2.52125,2.5310001,2.5410001,2.551,2.551,2.5712502,2.60225,2.6341252,2.6341252,2.6341252,2.6233752,2.6341252,2.6341252,2.6341252,2.6341252,2.61275,2.5815,2.561125,2.561125,2.551,2.551,2.551,2.561125,2.5712502,2.5113752,2.492125,2.5113752,2.5113752,2.473,2.5410001,2.492125,2.5017502,2.5017502,2.5712502,2.6341252,2.666625,2.666625,2.65575,2.666625,2.6776252,2.68875,2.68875,2.68875,2.68875,2.7,2.68875,2.6776252,2.6776252,2.666625,2.666625,2.6776252,2.7113752,2.7227502,2.73425,2.7113752,2.7,2.6776252,2.65575,2.65575,2.644875,2.591875,2.5815,2.561125,2.551,2.561125,2.5712502,2.5815,2.561125,2.5712502,2.5712502,2.551,2.551,2.561125,2.5712502,2.5712502,2.5815,2.5815,2.5410001,2.5310001,2.5410001,2.5310001,2.5310001,2.5113752,2.52125,2.5410001,2.551,2.561125,2.5815,2.60225,2.61275,2.6341252,2.6776252,2.6776252,2.666625,2.65575,2.6341252,2.6233752,2.6233752,2.6341252,2.6233752,2.61275,2.60225,2.591875,2.591875,2.61275,2.6233752,2.6233752,2.61275,2.61275,2.61275,2.60225,2.60225,2.60225,2.591875,2.591875,2.591875,2.60225,2.60225,2.5815,2.5712502,2.5815,2.591875,2.60225,2.60225,2.5815,2.5712502,2.561125,2.561125,2.5712502,2.5712502,2.5712502,2.5815,2.5712502,2.591875,2.60225,2.60225,2.60225,2.60225,2.60225,2.60225,2.60225,2.591875,2.5815,2.591875,2.591875,2.591875,2.5815,2.5815,2.5712502,2.5815,2.591875,2.61275,2.61275,2.60225,2.591875,2.60225,2.60225,2.591875,2.591875,2.60225,2.61275,2.61275,2.6233752,2.68875,2.68875,2.7113752,2.7113752,2.7,2.68875,2.65575,2.666625,2.644875,2.60225,2.5712502,2.561125,2.561125,2.5815,2.61275,2.6233752,2.60225,2.60225,2.60225,2.60225,2.591875,2.61275,2.60225,2.61275,2.61275,2.61275,2.61275,2.60225,2.591875,2.61275,2.591875,2.591875,2.591875,2.5815,2.591875,2.6233752,2.6341252,2.6341252,2.6233752,2.6233752,2.6233752,2.6341252,2.6341252,2.61275,2.6233752,2.591875,2.5815,2.5815,2.5815,2.591875,2.60225,2.61275,2.6233752,2.6233752,2.6341252,2.666625,2.666625,2.666625,2.6776252,2.6776252,2.7113752,2.7227502,2.7227502,2.73425,2.7227502,2.7227502,2.7227502,2.666625,2.61275,2.5712502,2.551,2.5310001,2.5113752,2.5410001,2.551,2.5410001,2.551,2.60225,2.60225,2.61275,2.68875,2.6341252,2.5712502,2.551,2.5712502,2.5712502,2.5410001,2.52125,2.5310001,2.561125,2.60225,2.61275,2.644875,2.666625,2.666625,2.666625,2.6776252,2.7,2.6776252,2.666625,2.6776252,2.68875,2.6233752,2.591875,2.591875,2.591875,2.5712502,2.5410001,2.5712502,2.561125,2.551,2.551,2.5712502,2.561125,2.551,2.561125,2.591875,2.591875,2.5410001,2.492125,2.4636252,2.473,2.4636252,2.45425,2.4450002,2.4450002,2.4636252
2.5410001,2.473,2.426625,2.426625,2.4176252,2.399625,2.3475,2.3138752,2.3138752,2.3138752,2.3138752,2.28125,2.5113752,2.5410001,2.561125,2.561125,2.561125,2.52125,2.52125,2.5113752,2.4825,2.4636252,2.4450002,2.426625,2.4086251,2.399625,2.4086251,2.4176252,2.4176252,2.4086251,2.473,2.5410001,2.551,2.561125,2.5712502,2.61275,2.6233752,2.591875,2.60225,2.60225,2.591875,2.60225,2.591875,2.5815,2.5815,2.5712502,2.5815,2.5712502,2.5712502,2.5815,2.5712502,2.5712502,2.591875,2.561125,2.60225,2.60225,2.60225,2.5815,2.561125,2.551,2.5410001,2.52125,2.5113752,2.5017502,2.5113752,2.5410001,2.5310001,2.5310001,2.5410001,2.551,2.561125,2.561125,2.5712502,2.591875,2.61275,2.61275,2.60225,2.61275,2.61275,2.61275,2.61275,2.6233752,2.60225,2.61275,2.60225,2.60225,2.591875,2.5815,2.591875,2.60225,2.6233752,2.591875,2.5712502,2.5712502,2.5712502,2.4825,2.561125,2.5017502,2.492125,2.5815,2.6233752,2.65575,2.666625,2.666625,2.666625,2.666625,2.6776252,2.6776252,2.6776252,2.6776252,2.6776252,2.666625,2.6776252,2.644875,2.65575,2.65575,2.65575,2.65575,2.68875,2.7113752,2.7113752,2.7113752,2.68875,2.6776252,2.65575,2.666625,2.644875,2.61275,2.5815,2.551,2.5310001,2.5410001,2.551,2.551,2.551,2.561125,2.551,2.5410001,2.5410001,2.551,2.561125,2.551,2.561125,2.5712502,2.5410001,2.52125,2.52125,2.52125,2.52125,2.52125,2.52125,2.5310001,2.5310001,2.5410001,2.5712502,2.61275,2.61275,2.6341252,2.6776252,2.6776252,2.666625,2.644875,2.6341252,2.6341252,2.6233752,2.6341252,2.6233752,2.61275,2.591875,2.591875,2.5815,2.60225,2.61275,2.60225,2.591875,2.591875,2.591875,2.591875,2.591875,2.60225,2.5815,2.5815,2.5815,2.60225,2.60225,2.5712502,2.561125,2.5712502,2.5712502,2.591875,2.5815,2.561125,2.551,2.551,2.561125,2.5712502,2.5815,2.5712502,2.5815,2.5815,2.591875,2.591875,2.591875,2.591875,2.60225,2.5815,2.5815,2.591875,2.591875,2.5712502,2.5712502,2.591875,2.591875,2.5815,2.5712502,2.5815,2.591875,2.591875,2.60225,2.60225,2.60225,2.591875,2.60225,2.61275,2.6233752,2.61275,2.61275,2.61275,2.60225,2.61275,2.6776252,2.6776252,2.7,2.7,2.68875,2.6776252,2.65575,2.666625,2.644875,2.591875,2.561125,2.561125,2.561125,2.591875,2.6233752,2.6341252,2.6233752,2.60225,2.61275,2.60225,2.61275,2.6233752,2.6233752,2.6233752,2.6341252,2.6233752,2.60225,2.60225,2.60225,2.6341252,2.61275,2.61275,2.60225,2.591875,2.591875,2.6233752,2.644875,2.644875,2.6233752,2.6233752,2.6233752,2.6341252,2.644875,2.61275,2.61275,2.591875,2.5815,2.5712502,2.5712502,2.60225,2.60225,2.6233752,2.61275,2.6233752,2.6341252,2.65575,2.65575,2.6776252,2.6776252,2.7,2.7227502,2.73425,2.7458751,2.7458751,2.73425,2.7458751,2.7458751,2.666625,2.61275,2.5815,2.561125,2.5017502,2.45425,2.5310001,2.52125,2.52125,2.5815,2.60225,2.61275,2.6233752,2.68875,2.6341252,2.5712502,2.5410001,2.561125,2.561125,2.5310001,2.5310001,2.551,2.5712502,2.5815,2.60225,2.6233752,2.65575,2.65575,2.65575,2.6776252,2.68875,2.65575,2.644875,2.644875,2.666625,2.6233752,2.60225,2.591875,2.5815,2.5712502,2.551,2.5712502,2.561125,2.551,2.5712502,2.60225,2.5815,2.5712502,2.5815,2.591875,2.591875,2.561125,2.5113752,2.4636252,2.473,2.4636252,2.43575,2.43575,2.43575,2.4450002
2.5410001,2.5310001,2.4636252,2.473,2.45425,2.43575,2.3907502,2.3560002,2.3560002,2.37325,2.3390002,2.289375,2.5113752,2.551,2.5815,2.60225,2.60225,2.5410001,2.5310001,2.5113752,2.4825,2.4450002,2.43575,2.399625,2.3820002,2.3907502,2.3907502,2.399625,2.4086251,2.4086251,2.45425,2.5310001,2.561125,2.561125,2.561125,2.591875,2.61275,2.60225,2.61275,2.61275,2.5815,2.5815,2.561125,2.551,2.5712502,2.561125,2.5712502,2.5712502,2.561125,2.5712502,2.5712502,2.5815,2.591875,2.5712502,2.591875,2.60225,2.5815,2.561125,2.561125,2.561125,2.551,2.5410001,2.5310001,2.52125,2.5310001,2.551,2.5410001,2.5410001,2.551,2.551,2.561125,2.5712502,2.5815,2.5815,2.591875,2.5815,2.591875,2.591875,2.60225,2.60225,2.60225,2.61275,2.591875,2.6341252,2.644875,2.644875,2.6233752,2.60225,2.6233752,2.644875,2.666625,2.65575,2.6233752,2.61275,2.61275,2.6233752,2.68875,2.6776252,2.666625,2.65575,2.644875,2.65575,2.6776252,2.666625,2.666625,2.65575,2.65575,2.65575,2.65575,2.644875,2.644875,2.6233752,2.644875,2.61275,2.6233752,2.61275,2.6233752,2.6341252,2.666625,2.68875,2.7,2.68875,2.68875,2.6776252,2.666625,2.666625,2.644875,2.60225,2.5712502,2.5310001,2.52125,2.5310001,2.5410001,2.5310001,2.5310001,2.5410001,2.5310001,2.52125,2.5310001,2.5410001,2.5410001,2.551,2.551,2.561125,2.5310001,2.52125,2.52125,2.5113752,2.5113752,2.5113752,2.5410001,2.5410001,2.5410001,2.551,2.5712502,2.61275,2.6233752,2.644875,2.6776252,2.65575,2.644875,2.6341252,2.61275,2.61275,2.60225,2.6233752,2.61275,2.591875,2.5815,2.591875,2.5712502,2.60225,2.60225,2.60225,2.591875,2.5815,2.5815,2.5815,2.5815,2.60225,2.591875,2.5815,2.591875,2.60225,2.61275,2.5815,2.5815,2.60225,2.591875,2.60225,2.60225,2.5815,2.561125,2.561125,2.561125,2.5815,2.5815,2.5815,2.5815,2.5815,2.591875,2.591875,2.5815,2.591875,2.591875,2.591875,2.5815,2.5815,2.5712502,2.561125,2.5712502,2.591875,2.591875,2.591875,2.5712502,2.5712502,2.5815,2.591875,2.60225,2.61275,2.60225,2.60225,2.61275,2.6341252,2.644875,2.6341252,2.6341252,2.6233752,2.60225,2.6233752,2.65575,2.644875,2.65575,2.65575,2.644875,2.6341252,2.6233752,2.644875,2.6341252,2.591875,2.561125,2.561125,2.5815,2.60225,2.6341252,2.644875,2.6341252,2.6341252,2.6233752,2.6233752,2.6233752,2.6341252,2.61275,2.6341252,2.65575,2.644875,2.6233752,2.6233752,2.6341252,2.644875,2.644875,2.6341252,2.61275,2.60225,2.60225,2.6233752,2.644875,2.644875,2.6341252,2.6233752,2.61275,2.61275,2.61275,2.60225,2.591875,2.591875,2.5815,2.5712502,2.5815,2.60225,2.591875,2.61275,2.61275,2.61275,2.61275,2.6233752,2.6233752,2.644875,2.644875,2.6776252,2.68875,2.7,2.7,2.7113752,2.7227502,2.73425,2.7458751,2.68875,2.60225,2.5815,2.399625,2.43575,2.43575,2.4636252,2.45425,2.43575,2.60225,2.60225,2.61275,2.61275,2.7,2.6233752,2.5712502,2.5310001,2.5410001,2.551,2.5310001,2.5410001,2.551,2.561125,2.5815,2.60225,2.65575,2.666625,2.666625,2.6776252,2.68875,2.68875,2.666625,2.6341252,2.644875,2.644875,2.61275,2.60225,2.591875,2.5815,2.561125,2.551,2.5712502,2.5712502,2.5712502,2.5815,2.6341252,2.6341252,2.60225,2.61275,2.6233752,2.61275,2.591875,2.5017502,2.4636252,2.45425,2.4450002,2.4176252,2.4086251,2.4086251,2.426625
2.561125,2.551,2.492125,2.492125,2.492125,2.473,2.43575,2.3907502,2.3907502,2.3907502,2.4086251,2.4825,2.5017502,2.52125,2.561125,2.591875,2.60225,2.551,2.5410001,2.52125,2.4825,2.45425,2.426625,2.399625,2.3907502,2.3907502,2.3907502,2.4086251,2.4086251,2.426625,2.4636252,2.5310001,2.561125,2.551,2.561125,2.5815,2.61275,2.60225,2.60225,2.60225,2.561125,2.5410001,2.52125,2.52125,2.5410001,2.5310001,2.561125,2.5712502,2.5712502,2.5712502,2.5815,2.61275,2.6233752,2.60225,2.61275,2.60225,2.5815,2.561125,2.561125,2.561125,2.551,2.5410001,2.5310001,2.52125,2.5310001,2.5310001,2.52125,2.5310001,2.52125,2.5310001,2.5410001,2.561125,2.5712502,2.561125,2.5712502,2.5712502,2.561125,2.5712502,2.591875,2.591875,2.591875,2.591875,2.60225,2.6233752,2.666625,2.666625,2.644875,2.6233752,2.644875,2.6776252,2.68875,2.6776252,2.644875,2.6233752,2.6233752,2.6341252,2.68875,2.6776252,2.6776252,2.6776252,2.65575,2.644875,2.666625,2.666625,2.666625,2.6341252,2.6341252,2.6233752,2.6233752,2.6233752,2.6233752,2.60225,2.60225,2.5815,2.5815,2.5815,2.591875,2.6233752,2.65575,2.666625,2.6776252,2.666625,2.6776252,2.6776252,2.666625,2.65575,2.644875,2.60225,2.561125,2.5410001,2.5310001,2.5310001,2.5310001,2.5310001,2.5113752,2.52125,2.5113752,2.5113752,2.5113752,2.52125,2.5310001,2.551,2.551,2.561125,2.5410001,2.52125,2.5310001,2.52125,2.5113752,2.5113752,2.551,2.551,2.551,2.561125,2.591875,2.6233752,2.6233752,2.6341252,2.65575,2.6341252,2.6233752,2.61275,2.591875,2.591875,2.5712502,2.591875,2.61275,2.60225,2.61275,2.61275,2.5815,2.61275,2.61275,2.60225,2.5815,2.561125,2.561125,2.551,2.561125,2.5815,2.591875,2.5815,2.591875,2.61275,2.6233752,2.60225,2.591875,2.61275,2.60225,2.60225,2.591875,2.5815,2.561125,2.561125,2.561125,2.591875,2.591875,2.591875,2.591875,2.591875,2.60225,2.60225,2.60225,2.591875,2.591875,2.5815,2.5712502,2.561125,2.551,2.551,2.5712502,2.5815,2.591875,2.591875,2.5815,2.5815,2.591875,2.591875,2.61275,2.61275,2.60225,2.61275,2.6341252,2.644875,2.65575,2.644875,2.65575,2.644875,2.6233752,2.6233752,2.6341252,2.60225,2.591875,2.60225,2.6233752,2.60225,2.591875,2.6341252,2.666625,2.6233752,2.61275,2.6233752,2.6341252,2.6341252,2.666625,2.6776252,2.65575,2.6341252,2.6341252,2.644875,2.6341252,2.6233752,2.60225,2.644875,2.65575,2.65575,2.666625,2.666625,2.65575,2.666625,2.65575,2.644875,2.61275,2.60225,2.60225,2.6233752,2.6341252,2.6341252,2.6341252,2.6233752,2.6233752,2.61275,2.61275,2.591875,2.591875,2.5815,2.5712502,2.561125,2.5815,2.60225,2.5712502,2.60225,2.60225,2.5815,2.5815,2.5815,2.5815,2.591875,2.60225,2.6341252,2.6233752,2.6341252,2.6341252,2.65575,2.68875,2.7,2.7227502,2.7227502,2.5815,2.5712502,2.3907502,2.3907502,2.4176252,2.4086251,2.426625,2.426625,2.591875,2.591875,2.61275,2.6233752,2.68875,2.6233752,2.561125,2.5310001,2.5310001,2.5410001,2.5410001,2.551,2.561125,2.5712502,2.5815,2.60225,2.666625,2.6776252,2.6776252,2.68875,2.68875,2.6776252,2.644875,2.61275,2.6233752,2.6233752,2.591875,2.5815,2.5712502,2.561125,2.5410001,2.551,2.561125,2.5712502,2.5815,2.61275,2.6776252,2.68875,2.65575,2.6776252,2.666625,2.65575,2.60225,2.4450002,2.43575,2.426625,2.43575,2.399625,2.3820002,2.3820002,2.399625
2.60225,2.5815,2.52125,2.5017502,2.5017502,2.492125,2.4636252,2.4176252,2.4086251,2.399625,2.4176252,2.473,2.4825,2.5113752,2.5410001,2.5815,2.60225,2.551,2.5310001,2.52125,2.4825,2.4450002,2.43575,2.4086251,2.3907502,2.3820002,2.399625,2.4086251,2.4176252,2.426625,2.4825,2.5113752,2.5410001,2.5410001,2.5410001,2.5712502,2.5815,2.561125,2.561125,2.5712502,2.5410001,2.52125,2.5017502,2.5017502,2.52125,2.52125,2.5712502,2.5815,2.5815,2.5815,2.60225,2.61275,2.6341252,2.61275,2.61275,2.60225,2.5815,2.551,2.551,2.551,2.551,2.5410001,2.5410001,2.5410001,2.5310001,2.5310001,2.52125,2.5410001,2.5310001,2.5310001,2.551,2.561125,2.561125,2.561125,2.561125,2.561125,2.551,2.561125,2.5712502,2.5815,2.5815,2.5815,2.591875,2.6233752,2.65575,2.666625,2.644875,2.6233752,2.6341252,2.6776252,2.68875,2.6776252,2.644875,2.6233752,2.6233752,2.6341252,2.68875,2.7,2.7,2.6776252,2.666625,2.65575,2.6776252,2.6776252,2.6776252,2.65575,2.6233752,2.61275,2.6233752,2.6233752,2.6233752,2.60225,2.60225,2.5712502,2.561125,2.561125,2.591875,2.61275,2.6341252,2.65575,2.65575,2.65575,2.666625,2.666625,2.65575,2.65575,2.6341252,2.591875,2.561125,2.5410001,2.5310001,2.5310001,2.52125,2.52125,2.52125,2.5113752,2.5113752,2.5113752,2.52125,2.52125,2.5410001,2.5712502,2.5712502,2.5815,2.561125,2.5410001,2.5310001,2.52125,2.5113752,2.52125,2.561125,2.551,2.551,2.561125,2.61275,2.644875,2.644875,2.644875,2.644875,2.6341252,2.6233752,2.6233752,2.60225,2.591875,2.5712502,2.5815,2.61275,2.6341252,2.6341252,2.6341252,2.591875,2.61275,2.61275,2.60225,2.5815,2.551,2.5410001,2.551,2.551,2.5712502,2.5815,2.5815,2.5712502,2.591875,2.6233752,2.60225,2.591875,2.60225,2.60225,2.591875,2.591875,2.5815,2.5712502,2.561125,2.5712502,2.5815,2.5815,2.591875,2.591875,2.591875,2.60225,2.60225,2.591875,2.591875,2.5815,2.5815,2.5712502,2.551,2.551,2.561125,2.5815,2.60225,2.61275,2.60225,2.61275,2.61275,2.6233752,2.6233752,2.6233752,2.6233752,2.60225,2.61275,2.6341252,2.65575,2.666625,2.65575,2.666625,2.666625,2.644875,2.6341252,2.6233752,2.5712502,2.561125,2.591875,2.61275,2.61275,2.60225,2.666625,2.7113752,2.68875,2.6776252,2.68875,2.68875,2.6776252,2.7,2.7,2.6776252,2.644875,2.65575,2.666625,2.65575,2.644875,2.6341252,2.666625,2.6776252,2.6776252,2.68875,2.6776252,2.65575,2.666625,2.644875,2.644875,2.61275,2.60225,2.60225,2.61275,2.6341252,2.644875,2.6341252,2.6233752,2.6341252,2.644875,2.644875,2.6341252,2.6233752,2.61275,2.591875,2.591875,2.61275,2.61275,2.5712502,2.5815,2.591875,2.5712502,2.551,2.5410001,2.551,2.551,2.5712502,2.591875,2.5815,2.5815,2.591875,2.60225,2.6341252,2.65575,2.644875,2.551,2.551,2.5310001,2.37325,2.43575,2.426625,2.4086251,2.4086251,2.4176252,2.561125,2.60225,2.644875,2.666625,2.7113752,2.6233752,2.5712502,2.52125,2.5310001,2.551,2.551,2.551,2.561125,2.5712502,2.5815,2.60225,2.666625,2.666625,2.666625,2.6776252,2.6776252,2.666625,2.644875,2.60225,2.60225,2.60225,2.5712502,2.551,2.551,2.5410001,2.5310001,2.5410001,2.561125,2.5712502,2.5815,2.6233752,2.7,2.7227502,2.7113752,2.7227502,2.7113752,2.68875,2.644875,2.426625,2.426625,2.4086251,2.4450002,2.399625,2.3820002,2.3820002,2.3820002
2.644875,2.561125,2.5310001,2.52125,2.5113752,2.5017502,2.4636252,2.4176252,2.399625,2.399625,2.4086251,2.45425,2.4636252,2.492125,2.5113752,2.551,2.591875,2.561125,2.551,2.5310001,2.492125,2.45425,2.43575,2.4086251,2.3907502,2.3820002,2.3907502,2.4176252,2.4176252,2.4176252,2.45425,2.45425,2.5017502,2.5113752,2.5113752,2.5310001,2.5310001,2.5113752,2.5113752,2.52125,2.52125,2.5017502,2.4825,2.4450002,2.5113752,2.5113752,2.561125,2.591875,2.5712502,2.5815,2.60225,2.61275,2.6233752,2.60225,2.60225,2.60225,2.5712502,2.551,2.551,2.5410001,2.551,2.5410001,2.561125,2.561125,2.551,2.551,2.5310001,2.551,2.5410001,2.551,2.561125,2.561125,2.561125,2.561125,2.561125,2.561125,2.551,2.561125,2.5712502,2.5712502,2.561125,2.5815,2.5815,2.6233752,2.65575,2.65575,2.644875,2.6233752,2.6341252,2.666625,2.68875,2.6776252,2.6341252,2.61275,2.61275,2.61275,2.666625,2.68875,2.68875,2.666625,2.65575,2.65575,2.666625,2.6776252,2.6776252,2.666625,2.644875,2.6341252,2.6233752,2.6233752,2.6233752,2.60225,2.591875,2.5815,2.551,2.551,2.5712502,2.591875,2.60225,2.6233752,2.6341252,2.6341252,2.644875,2.644875,2.6341252,2.6341252,2.6233752,2.60225,2.5712502,2.551,2.5410001,2.52125,2.5113752,2.5017502,2.5113752,2.52125,2.5310001,2.5310001,2.5410001,2.551,2.561125,2.5815,2.5712502,2.5815,2.5712502,2.551,2.52125,2.5310001,2.52125,2.5310001,2.5712502,2.5712502,2.5712502,2.5815,2.644875,2.6776252,2.6776252,2.666625,2.666625,2.644875,2.644875,2.65575,2.6341252,2.61275,2.60225,2.60225,2.6341252,2.644875,2.644875,2.644875,2.591875,2.60225,2.60225,2.591875,2.5712502,2.551,2.5310001,2.551,2.561125,2.5815,2.591875,2.5815,2.5815,2.60225,2.6233752,2.61275,2.60225,2.61275,2.60225,2.591875,2.60225,2.60225,2.60225,2.591875,2.60225,2.60225,2.591875,2.591875,2.591875,2.60225,2.61275,2.60225,2.60225,2.591875,2.60225,2.591875,2.591875,2.551,2.561125,2.5712502,2.591875,2.61275,2.6233752,2.6233752,2.6233752,2.6341252,2.644875,2.6341252,2.6341252,2.6341252,2.61275,2.6233752,2.644875,2.65575,2.68875,2.666625,2.6776252,2.666625,2.65575,2.6341252,2.6233752,2.5712502,2.5712502,2.591875,2.6233752,2.6233752,2.6233752,2.68875,2.7113752,2.7113752,2.7113752,2.7113752,2.7227502,2.7,2.7,2.7113752,2.68875,2.6776252,2.68875,2.7113752,2.68875,2.666625,2.666625,2.7,2.7,2.7,2.68875,2.6776252,2.666625,2.666625,2.65575,2.65575,2.6233752,2.60225,2.60225,2.6233752,2.65575,2.644875,2.644875,2.6341252,2.644875,2.666625,2.666625,2.65575,2.6341252,2.6341252,2.6233752,2.6233752,2.6341252,2.6341252,2.5815,2.591875,2.591875,2.591875,2.5410001,2.5310001,2.5410001,2.551,2.561125,2.5815,2.561125,2.561125,2.561125,2.5815,2.61275,2.6341252,2.6233752,2.551,2.5310001,2.52125,2.4636252,2.5017502,2.473,2.4825,2.473,2.5310001,2.551,2.60225,2.65575,2.7,2.7113752,2.60225,2.561125,2.5310001,2.5310001,2.551,2.5310001,2.5310001,2.551,2.5712502,2.5712502,2.591875,2.644875,2.644875,2.644875,2.65575,2.65575,2.65575,2.6341252,2.5815,2.591875,2.591875,2.561125,2.5410001,2.5410001,2.5410001,2.52125,2.5310001,2.561125,2.5815,2.60225,2.65575,2.7113752,2.7458751,2.73425,2.73425,2.7227502,2.7113752,2.6776252,2.644875,2.5712502,2.5410001,2.4825,2.426625,2.3907502,2.3820002,2.37325
2.7113752,2.5310001,2.5410001,2.5410001,2.5410001,2.52125,2.473,2.426625,2.4086251,2.399625,2.399625,2.43575,2.4450002,2.45425,2.4825,2.52125,2.5712502,2.551,2.5815,2.561125,2.5017502,2.473,2.45425,2.426625,2.4086251,2.399625,2.4086251,2.4176252,2.426625,2.426625,2.43575,2.4086251,2.473,2.492125,2.492125,2.492125,2.5017502,2.4825,2.4825,2.5017502,2.5017502,2.492125,2.4825,2.4636252,2.52125,2.5113752,2.5712502,2.60225,2.591875,2.591875,2.60225,2.61275,2.61275,2.60225,2.591875,2.5815,2.5712502,2.561125,2.551,2.5410001,2.5310001,2.5410001,2.551,2.561125,2.551,2.5410001,2.52125,2.5410001,2.5310001,2.5410001,2.551,2.551,2.551,2.551,2.551,2.551,2.561125,2.5712502,2.5815,2.5815,2.5712502,2.5712502,2.5815,2.61275,2.644875,2.65575,2.65575,2.6341252,2.6233752,2.644875,2.6776252,2.6776252,2.6233752,2.60225,2.591875,2.591875,2.6233752,2.666625,2.666625,2.644875,2.6341252,2.6341252,2.65575,2.65575,2.65575,2.65575,2.6341252,2.6233752,2.61275,2.60225,2.60225,2.5815,2.5712502,2.561125,2.5410001,2.5310001,2.551,2.561125,2.5712502,2.60225,2.61275,2.61275,2.6233752,2.6233752,2.6233752,2.6233752,2.6233752,2.61275,2.5815,2.5712502,2.551,2.5310001,2.5310001,2.52125,2.5310001,2.5410001,2.5410001,2.5410001,2.5410001,2.561125,2.5712502,2.591875,2.5815,2.5712502,2.5712502,2.551,2.5410001,2.551,2.5410001,2.551,2.5815,2.60225,2.60225,2.60225,2.65575,2.68875,2.68875,2.6776252,2.6776252,2.644875,2.644875,2.65575,2.644875,2.6233752,2.61275,2.61275,2.644875,2.666625,2.666625,2.65575,2.61275,2.591875,2.60225,2.591875,2.5815,2.551,2.5410001,2.551,2.561125,2.5815,2.60225,2.591875,2.5815,2.60225,2.61275,2.61275,2.61275,2.61275,2.60225,2.60225,2.61275,2.6233752,2.61275,2.61275,2.61275,2.61275,2.60225,2.61275,2.61275,2.6233752,2.6341252,2.6233752,2.6341252,2.61275,2.61275,2.60225,2.5815,2.561125,2.561125,2.5815,2.60225,2.6233752,2.6233752,2.6341252,2.6341252,2.65575,2.644875,2.644875,2.65575,2.644875,2.6341252,2.644875,2.666625,2.68875,2.7,2.68875,2.6776252,2.6776252,2.65575,2.644875,2.6233752,2.5815,2.561125,2.5712502,2.61275,2.6233752,2.61275,2.68875,2.7113752,2.7113752,2.7113752,2.73425,2.7227502,2.7,2.68875,2.7113752,2.68875,2.6776252,2.7,2.7113752,2.7,2.6776252,2.6776252,2.7,2.7113752,2.7,2.7,2.68875,2.666625,2.666625,2.666625,2.65575,2.6341252,2.6233752,2.61275,2.6341252,2.65575,2.6341252,2.644875,2.6341252,2.644875,2.644875,2.644875,2.6341252,2.61275,2.6233752,2.6341252,2.6233752,2.6341252,2.6233752,2.5712502,2.591875,2.591875,2.5815,2.5410001,2.52125,2.5310001,2.5410001,2.561125,2.5815,2.551,2.5410001,2.551,2.5712502,2.61275,2.6233752,2.60225,2.5310001,2.5017502,2.5113752,2.5113752,2.5017502,2.5017502,2.5310001,2.5410001,2.52125,2.5310001,2.5815,2.61275,2.6341252,2.666625,2.60225,2.551,2.52125,2.5310001,2.5410001,2.52125,2.5310001,2.551,2.5712502,2.5815,2.591875,2.6341252,2.6233752,2.6341252,2.6341252,2.6341252,2.6341252,2.6233752,2.5815,2.5815,2.5815,2.561125,2.5410001,2.5310001,2.5310001,2.5310001,2.5310001,2.5712502,2.60225,2.6341252,2.666625,2.7113752,2.73425,2.7227502,2.7227502,2.7113752,2.7,2.68875,2.644875,2.5410001,2.52125,2.5113752,2.4450002,2.399625,2.37325,2.3646252
2.769375,2.551,2.561125,2.5712502,2.5712502,2.561125,2.5017502,2.4636252,2.4450002,2.426625,2.426625,2.43575,2.43575,2.4450002,2.45425,2.5113752,2.5712502,2.5712502,2.60225,2.61275,2.5310001,2.4825,2.4825,2.45425,2.43575,2.4176252,2.426625,2.43575,2.43575,2.43575,2.4450002,2.399625,2.4636252,2.4825,2.4636252,2.473,2.4825,2.473,2.473,2.4825,2.4825,2.45425,2.4450002,2.4636252,2.473,2.52125,2.5712502,2.61275,2.60225,2.591875,2.60225,2.60225,2.60225,2.591875,2.591875,2.5815,2.551,2.5410001,2.5310001,2.5310001,2.5310001,2.5410001,2.551,2.551,2.551,2.5310001,2.5113752,2.5310001,2.5310001,2.5410001,2.551,2.551,2.5410001,2.5410001,2.5410001,2.5410001,2.551,2.561125,2.5815,2.5712502,2.561125,2.561125,2.5712502,2.61275,2.6341252,2.644875,2.644875,2.6233752,2.61275,2.6341252,2.666625,2.65575,2.6341252,2.591875,2.5815,2.5712502,2.60225,2.65575,2.65575,2.6341252,2.6341252,2.6233752,2.6341252,2.644875,2.644875,2.6341252,2.61275,2.591875,2.591875,2.591875,2.5815,2.561125,2.551,2.551,2.5310001,2.5310001,2.5410001,2.5410001,2.551,2.5815,2.591875,2.60225,2.61275,2.6233752,2.61275,2.6233752,2.6233752,2.6233752,2.60225,2.591875,2.5815,2.5712502,2.561125,2.551,2.5712502,2.5712502,2.5712502,2.561125,2.5410001,2.551,2.551,2.5815,2.5712502,2.561125,2.551,2.551,2.5410001,2.551,2.551,2.561125,2.60225,2.61275,2.61275,2.6341252,2.65575,2.68875,2.68875,2.6776252,2.666625,2.6341252,2.6233752,2.644875,2.6341252,2.60225,2.61275,2.61275,2.6341252,2.644875,2.644875,2.65575,2.60225,2.591875,2.5815,2.5815,2.5712502,2.561125,2.561125,2.5712502,2.5712502,2.591875,2.60225,2.591875,2.5815,2.591875,2.591875,2.61275,2.60225,2.61275,2.60225,2.61275,2.6233752,2.6233752,2.6233752,2.61275,2.60225,2.6233752,2.61275,2.61275,2.6233752,2.6341252,2.644875,2.644875,2.644875,2.6341252,2.61275,2.591875,2.5815,2.551,2.551,2.5815,2.60225,2.6233752,2.6341252,2.6341252,2.644875,2.666625,2.65575,2.65575,2.65575,2.65575,2.644875,2.65575,2.6776252,2.7,2.7113752,2.68875,2.68875,2.666625,2.644875,2.6341252,2.60225,2.551,2.5410001,2.561125,2.60225,2.61275,2.60225,2.6776252,2.68875,2.7113752,2.7227502,2.7227502,2.7227502,2.68875,2.68875,2.68875,2.6776252,2.65575,2.666625,2.68875,2.68875,2.65575,2.65575,2.68875,2.7,2.7,2.7,2.7,2.6776252,2.666625,2.666625,2.65575,2.6341252,2.6233752,2.6233752,2.6233752,2.6341252,2.6233752,2.61275,2.60225,2.61275,2.6233752,2.6233752,2.6233752,2.60225,2.6233752,2.6341252,2.644875,2.644875,2.6233752,2.561125,2.561125,2.561125,2.551,2.52125,2.5017502,2.5113752,2.5310001,2.5410001,2.5712502,2.551,2.551,2.561125,2.5712502,2.61275,2.6233752,2.61275,2.5113752,2.473,2.4825,2.4825,2.4825,2.492125,2.52125,2.5113752,2.3646252,2.3646252,2.561125,2.60225,2.61275,2.6233752,2.61275,2.561125,2.5410001,2.5410001,2.551,2.551,2.551,2.5712502,2.591875,2.591875,2.591875,2.6233752,2.6233752,2.6233752,2.6341252,2.6233752,2.61275,2.591875,2.5712502,2.561125,2.561125,2.5410001,2.5310001,2.5310001,2.5410001,2.551,2.5410001,2.5815,2.6233752,2.644875,2.65575,2.6776252,2.6776252,2.6776252,2.68875,2.7,2.68875,2.68875,2.644875,2.551,2.551,2.5410001,2.473,2.4086251,2.37325,2.3646252
2.769375,2.5712502,2.5815,2.591875,2.61275,2.591875,2.5410001,2.4825,2.4636252,2.4450002,2.4450002,2.43575,2.43575,2.43575,2.4636252,2.5113752,2.591875,2.5815,2.591875,2.65575,2.551,2.492125,2.5017502,2.4636252,2.4450002,2.43575,2.43575,2.4450002,2.4450002,2.4450002,2.45425,2.4176252,2.4636252,2.473,2.4636252,2.4636252,2.473,2.4636252,2.45425,2.4636252,2.4825,2.426625,2.399625,2.4086251,2.43575,2.52125,2.5712502,2.61275,2.60225,2.5815,2.591875,2.60225,2.591875,2.5712502,2.5815,2.561125,2.5410001,2.5310001,2.5310001,2.5410001,2.5310001,2.551,2.551,2.551,2.551,2.551,2.52125,2.5310001,2.5410001,2.551,2.551,2.551,2.551,2.5310001,2.5310001,2.5310001,2.551,2.561125,2.5712502,2.561125,2.5410001,2.551,2.561125,2.591875,2.6233752,2.6341252,2.6233752,2.61275,2.60225,2.61275,2.666625,2.666625,2.6233752,2.591875,2.5712502,2.5712502,2.61275,2.644875,2.666625,2.6341252,2.6233752,2.6233752,2.61275,2.6341252,2.6233752,2.61275,2.591875,2.5712502,2.5712502,2.5712502,2.5712502,2.551,2.5410001,2.5410001,2.52125,2.52125,2.5410001,2.551,2.551,2.5712502,2.591875,2.591875,2.60225,2.60225,2.61275,2.61275,2.61275,2.6341252,2.6233752,2.6233752,2.60225,2.60225,2.60225,2.60225,2.6233752,2.6233752,2.61275,2.5815,2.561125,2.561125,2.5712502,2.591875,2.5815,2.561125,2.561125,2.5410001,2.52125,2.5310001,2.5410001,2.561125,2.60225,2.6233752,2.61275,2.6341252,2.65575,2.666625,2.666625,2.6776252,2.65575,2.6233752,2.6233752,2.6341252,2.6341252,2.5815,2.591875,2.60225,2.60225,2.60225,2.60225,2.61275,2.551,2.551,2.551,2.561125,2.561125,2.551,2.561125,2.5712502,2.5712502,2.591875,2.591875,2.591875,2.5815,2.591875,2.591875,2.60225,2.60225,2.60225,2.60225,2.61275,2.6233752,2.6233752,2.6233752,2.6233752,2.60225,2.61275,2.6233752,2.6341252,2.644875,2.644875,2.666625,2.65575,2.65575,2.644875,2.6233752,2.591875,2.561125,2.5310001,2.5410001,2.5815,2.61275,2.6341252,2.6341252,2.6341252,2.6341252,2.666625,2.666625,2.666625,2.65575,2.644875,2.644875,2.65575,2.6776252,2.7,2.7227502,2.7,2.68875,2.666625,2.6341252,2.61275,2.5815,2.5310001,2.5113752,2.5410001,2.5815,2.60225,2.60225,2.666625,2.6776252,2.7,2.7113752,2.7227502,2.7227502,2.6776252,2.666625,2.6776252,2.644875,2.6341252,2.644875,2.65575,2.666625,2.6341252,2.6341252,2.68875,2.7,2.7,2.68875,2.68875,2.6776252,2.65575,2.65575,2.65575,2.6341252,2.61275,2.60225,2.61275,2.60225,2.60225,2.591875,2.591875,2.60225,2.61275,2.6233752,2.6233752,2.591875,2.6233752,2.644875,2.65575,2.65575,2.6233752,2.5712502,2.5410001,2.52125,2.5310001,2.492125,2.4825,2.5017502,2.5113752,2.52125,2.551,2.5410001,2.551,2.551,2.561125,2.591875,2.60225,2.591875,2.5712502,2.4636252,2.45425,2.4636252,2.4636252,2.492125,2.492125,2.492125,2.3646252,2.3646252,2.5712502,2.60225,2.6233752,2.6341252,2.61275,2.5712502,2.551,2.551,2.561125,2.561125,2.561125,2.5712502,2.5712502,2.5815,2.5815,2.6233752,2.61275,2.6233752,2.6233752,2.6233752,2.61275,2.591875,2.561125,2.561125,2.551,2.5310001,2.5310001,2.5410001,2.551,2.5712502,2.5712502,2.60225,2.6341252,2.644875,2.65575,2.65575,2.65575,2.644875,2.666625,2.666625,2.666625,2.65575,2.6233752,2.5815,2.5815,2.561125,2.5017502,2.4450002,2.3907502,2.37325
2.769375,2.666625,2.65575,2.6341252,2.65575,2.61275,2.551,2.4825,2.45425,2.4636252,2.45425,2.43575,2.426625,2.43575,2.473,2.52125,2.6341252,2.6341252,2.666625,2.6776252,2.561125,2.492125,2.5017502,2.4636252,2.45425,2.4450002,2.4450002,2.45425,2.4636252,2.45425,2.473,2.473,2.492125,2.4825,2.4636252,2.45425,2.45425,2.4450002,2.43575,2.45425,2.4636252,2.426625,2.399625,2.4086251,2.43575,2.5310001,2.5815,2.61275,2.591875,2.5815,2.5815,2.591875,2.5815,2.5712502,2.5712502,2.551,2.5310001,2.52125,2.5310001,2.5410001,2.5310001,2.5410001,2.551,2.551,2.551,2.5410001,2.52125,2.5410001,2.5410001,2.5410001,2.551,2.561125,2.561125,2.561125,2.551,2.561125,2.5712502,2.5815,2.5815,2.5712502,2.5410001,2.551,2.551,2.5815,2.60225,2.60225,2.6233752,2.61275,2.591875,2.5712502,2.65575,2.644875,2.61275,2.5815,2.5712502,2.561125,2.61275,2.644875,2.65575,2.6341252,2.6233752,2.6233752,2.61275,2.6233752,2.61275,2.61275,2.5815,2.561125,2.5410001,2.551,2.551,2.5410001,2.5310001,2.5410001,2.5310001,2.5410001,2.551,2.5712502,2.561125,2.5712502,2.5815,2.591875,2.60225,2.591875,2.591875,2.60225,2.60225,2.61275,2.6341252,2.6341252,2.6233752,2.6233752,2.6341252,2.61275,2.644875,2.644875,2.6341252,2.61275,2.61275,2.6233752,2.61275,2.6341252,2.61275,2.5815,2.591875,2.5712502,2.5410001,2.5310001,2.5310001,2.551,2.591875,2.61275,2.61275,2.6233752,2.65575,2.6776252,2.6776252,2.6776252,2.666625,2.6341252,2.6233752,2.644875,2.6341252,2.5815,2.591875,2.60225,2.591875,2.5815,2.591875,2.591875,2.5410001,2.5410001,2.561125,2.561125,2.561125,2.561125,2.5712502,2.591875,2.591875,2.60225,2.591875,2.5815,2.591875,2.60225,2.591875,2.61275,2.61275,2.591875,2.60225,2.61275,2.6233752,2.6233752,2.6233752,2.6233752,2.60225,2.6233752,2.6341252,2.65575,2.666625,2.666625,2.6776252,2.666625,2.666625,2.65575,2.644875,2.61275,2.591875,2.5712502,2.5712502,2.591875,2.6233752,2.644875,2.644875,2.644875,2.6341252,2.65575,2.65575,2.666625,2.65575,2.65575,2.644875,2.65575,2.68875,2.7113752,2.7227502,2.7,2.68875,2.65575,2.61275,2.60225,2.5712502,2.5113752,2.5017502,2.52125,2.5815,2.591875,2.591875,2.65575,2.666625,2.68875,2.7,2.7113752,2.7113752,2.6776252,2.666625,2.666625,2.65575,2.6341252,2.644875,2.666625,2.666625,2.644875,2.644875,2.68875,2.7,2.68875,2.6776252,2.6776252,2.666625,2.644875,2.644875,2.644875,2.6233752,2.60225,2.591875,2.60225,2.5815,2.5815,2.5815,2.5815,2.5815,2.591875,2.61275,2.61275,2.591875,2.6341252,2.6341252,2.644875,2.644875,2.6233752,2.60225,2.5410001,2.52125,2.52125,2.492125,2.4825,2.492125,2.5017502,2.52125,2.5410001,2.5310001,2.5310001,2.5410001,2.5310001,2.561125,2.551,2.5410001,2.473,2.45425,2.45425,2.4636252,2.473,2.492125,2.3305001,2.3305001,2.3305001,2.60225,2.5815,2.61275,2.6341252,2.644875,2.6233752,2.5815,2.561125,2.5712502,2.561125,2.5410001,2.551,2.561125,2.5712502,2.561125,2.561125,2.61275,2.60225,2.60225,2.61275,2.61275,2.61275,2.591875,2.561125,2.5712502,2.561125,2.551,2.551,2.5410001,2.551,2.561125,2.561125,2.60225,2.6341252,2.644875,2.644875,2.65575,2.6341252,2.644875,2.65575,2.644875,2.6341252,2.6233752,2.61275,2.60225,2.591875,2.5815,2.5410001,2.492125,2.426625,2.399625
2.769375,2.7458751,2.68875,2.6776252,2.68875,2.644875,2.561125,2.492125,2.473,2.492125,2.473,2.4450002,2.426625,2.426625,2.473,2.5113752,2.6776252,2.6776252,2.7458751,2.7,2.5712502,2.5113752,2.52125,2.5017502,2.4636252,2.4450002,2.45425,2.473,2.4825,2.473,2.492125,2.5113752,2.5017502,2.492125,2.4636252,2.43575,2.4176252,2.4086251,2.4086251,2.426625,2.43575,2.4176252,2.4086251,2.4176252,2.4450002,2.551,2.591875,2.6233752,2.60225,2.591875,2.5815,2.591875,2.561125,2.561125,2.561125,2.5410001,2.52125,2.52125,2.52125,2.5310001,2.52125,2.5310001,2.5410001,2.5410001,2.5410001,2.5310001,2.5113752,2.52125,2.5310001,2.5310001,2.5410001,2.5410001,2.5410001,2.561125,2.5712502,2.5712502,2.5815,2.5815,2.5815,2.5815,2.551,2.551,2.551,2.561125,2.5712502,2.60225,2.6233752,2.61275,2.60225,2.60225,2.65575,2.644875,2.60225,2.591875,2.5712502,2.551,2.5815,2.6341252,2.644875,2.6341252,2.61275,2.61275,2.591875,2.61275,2.61275,2.60225,2.5815,2.561125,2.551,2.551,2.551,2.5410001,2.5410001,2.5410001,2.5310001,2.5410001,2.561125,2.5815,2.5815,2.5815,2.5712502,2.5815,2.5815,2.5815,2.5815,2.5815,2.5815,2.60225,2.6233752,2.6341252,2.6341252,2.6341252,2.6341252,2.644875,2.65575,2.644875,2.6341252,2.6341252,2.6341252,2.65575,2.644875,2.644875,2.6341252,2.60225,2.60225,2.591875,2.5712502,2.551,2.551,2.5712502,2.591875,2.6233752,2.6233752,2.6233752,2.65575,2.666625,2.666625,2.666625,2.644875,2.61275,2.61275,2.6341252,2.6233752,2.5815,2.5712502,2.5815,2.5815,2.5815,2.5815,2.591875,2.5410001,2.551,2.5712502,2.5712502,2.5712502,2.5712502,2.5815,2.591875,2.591875,2.60225,2.60225,2.5815,2.591875,2.591875,2.591875,2.61275,2.60225,2.591875,2.591875,2.60225,2.61275,2.6233752,2.60225,2.61275,2.591875,2.6233752,2.644875,2.666625,2.6776252,2.68875,2.7,2.68875,2.6776252,2.6776252,2.65575,2.6341252,2.61275,2.591875,2.60225,2.6233752,2.6341252,2.644875,2.65575,2.65575,2.6341252,2.65575,2.65575,2.666625,2.6776252,2.666625,2.666625,2.666625,2.68875,2.7113752,2.7227502,2.7,2.68875,2.644875,2.61275,2.591875,2.561125,2.5017502,2.4825,2.5017502,2.551,2.5712502,2.5815,2.6341252,2.666625,2.6776252,2.6776252,2.7,2.7,2.666625,2.65575,2.65575,2.65575,2.6341252,2.644875,2.666625,2.666625,2.644875,2.65575,2.6776252,2.68875,2.6776252,2.666625,2.65575,2.644875,2.6341252,2.6341252,2.6233752,2.60225,2.591875,2.5815,2.5815,2.5815,2.5712502,2.5712502,2.5815,2.5815,2.5712502,2.591875,2.591875,2.591875,2.61275,2.6341252,2.65575,2.65575,2.644875,2.644875,2.60225,2.561125,2.551,2.5017502,2.492125,2.5113752,2.5113752,2.52125,2.5310001,2.5113752,2.5113752,2.5113752,2.5113752,2.5310001,2.5113752,2.5113752,2.4636252,2.45425,2.45425,2.473,2.4825,2.4825,2.3305001,2.3820002,2.3390002,2.3907502,2.5815,2.61275,2.6233752,2.6341252,2.6233752,2.591875,2.5815,2.5815,2.5712502,2.561125,2.561125,2.5712502,2.5712502,2.5712502,2.5815,2.61275,2.60225,2.61275,2.6233752,2.6233752,2.6233752,2.60225,2.5712502,2.591875,2.5712502,2.5712502,2.561125,2.561125,2.551,2.561125,2.5815,2.6233752,2.644875,2.644875,2.644875,2.644875,2.644875,2.6341252,2.6341252,2.6341252,2.6341252,2.6233752,2.61275,2.591875,2.5815,2.5712502,2.551,2.5113752,2.4450002,2.4086251
2.7227502,2.7227502,2.666625,2.666625,2.666625,2.644875,2.5712502,2.5113752,2.5017502,2.5017502,2.4825,2.45425,2.4450002,2.43575,2.4636252,2.6341252,2.6776252,2.68875,2.7113752,2.7113752,2.7,2.5017502,2.5310001,2.551,2.492125,2.473,2.4825,2.492125,2.5017502,2.5017502,2.5113752,2.5410001,2.5113752,2.5017502,2.473,2.426625,2.399625,2.3907502,2.3907502,2.399625,2.426625,2.426625,2.426625,2.426625,2.4636252,2.561125,2.61275,2.6341252,2.60225,2.5712502,2.561125,2.5712502,2.551,2.5410001,2.551,2.5410001,2.52125,2.5113752,2.52125,2.5310001,2.5310001,2.5410001,2.551,2.5410001,2.5310001,2.52125,2.5113752,2.5113752,2.5310001,2.52125,2.5310001,2.5310001,2.5310001,2.551,2.561125,2.561125,2.5815,2.591875,2.5815,2.561125,2.551,2.551,2.551,2.551,2.561125,2.591875,2.61275,2.61275,2.591875,2.6233752,2.644875,2.6233752,2.61275,2.60225,2.591875,2.5410001,2.5712502,2.6233752,2.6341252,2.61275,2.591875,2.591875,2.5815,2.60225,2.60225,2.60225,2.5815,2.5712502,2.561125,2.561125,2.561125,2.561125,2.551,2.5410001,2.5410001,2.5410001,2.5712502,2.5712502,2.5712502,2.5712502,2.561125,2.5815,2.5815,2.5712502,2.5712502,2.5815,2.5815,2.591875,2.6233752,2.644875,2.644875,2.644875,2.65575,2.65575,2.666625,2.644875,2.644875,2.644875,2.644875,2.644875,2.644875,2.644875,2.6233752,2.60225,2.60225,2.591875,2.5815,2.561125,2.561125,2.5712502,2.591875,2.61275,2.61275,2.6341252,2.65575,2.65575,2.65575,2.65575,2.6233752,2.60225,2.61275,2.61275,2.60225,2.561125,2.5712502,2.5815,2.5815,2.5815,2.591875,2.591875,2.5410001,2.551,2.5712502,2.5712502,2.5712502,2.5712502,2.5712502,2.5815,2.591875,2.60225,2.5815,2.5712502,2.5815,2.591875,2.591875,2.6233752,2.60225,2.591875,2.5815,2.591875,2.61275,2.61275,2.60225,2.60225,2.591875,2.6341252,2.65575,2.6776252,2.7,2.7,2.7113752,2.68875,2.6776252,2.666625,2.644875,2.6233752,2.61275,2.591875,2.60225,2.61275,2.6341252,2.644875,2.65575,2.644875,2.6233752,2.644875,2.6341252,2.65575,2.65575,2.644875,2.65575,2.65575,2.666625,2.68875,2.68875,2.6776252,2.65575,2.61275,2.5815,2.5712502,2.5410001,2.4825,2.473,2.492125,2.5310001,2.551,2.5712502,2.6341252,2.65575,2.65575,2.6776252,2.68875,2.6776252,2.65575,2.6341252,2.6341252,2.644875,2.6341252,2.6341252,2.644875,2.644875,2.6341252,2.65575,2.65575,2.666625,2.666625,2.644875,2.644875,2.6233752,2.60225,2.60225,2.60225,2.5815,2.5712502,2.5712502,2.5815,2.551,2.561125,2.5712502,2.561125,2.5712502,2.5712502,2.5712502,2.5815,2.591875,2.6341252,2.666625,2.6776252,2.6776252,2.68875,2.7,2.65575,2.61275,2.591875,2.5310001,2.5113752,2.52125,2.52125,2.5310001,2.5410001,2.52125,2.5113752,2.5017502,2.5017502,2.52125,2.5113752,2.5017502,2.4636252,2.45425,2.4636252,2.492125,2.5017502,2.473,2.3305001,2.45425,2.399625,2.399625,2.5815,2.61275,2.60225,2.6233752,2.61275,2.591875,2.60225,2.591875,2.5815,2.5712502,2.5712502,2.5712502,2.5815,2.5815,2.5815,2.591875,2.591875,2.60225,2.6341252,2.6341252,2.6341252,2.6233752,2.60225,2.61275,2.61275,2.61275,2.61275,2.60225,2.591875,2.60225,2.61275,2.6341252,2.644875,2.644875,2.644875,2.65575,2.6341252,2.6233752,2.6233752,2.6233752,2.6233752,2.61275,2.60225,2.5815,2.5712502,2.561125,2.561125,2.52125,2.473,2.426625
